-1.8223900e-002 9.7494570e-002 4.6847940e-002
-6.6916260e-002 1.2278907e-001 -8.9077400e-003
-6.3754640e-002 3.8250120e-002 1.6593500e-002
-6.4415760e-002 4.1283840e-002 2.8243480e-002
-8.5856340e-002 9.7025390e-002 2.7414960e-002
-3.7501130e-002 4.0221900e-002 4.4296550e-002
-3.4333970e-002 4.0923630e-002 4.8425810e-002
-3.1172890e-002 4.0294330e-002 5.1312460e-002
-6.9997320e-002 4.2073080e-002 6.6897800e-003
-8.0379330e-002 9.7800660e-002 3.3645750e-002
-2.6273160e-002 7.7631160e-002 4.8356180e-002
-3.7501450e-002 4.2736690e-002 4.2988400e-002
-2.6177500e-002 4.2498930e-002 5.3315220e-002
-6.9637250e-002 4.1881270e-002 3.1825800e-003
-6.7156510e-002 4.1972860e-002 1.0240940e-002
-8.7405510e-002 1.0205209e-001 2.2020360e-002
-2.3944380e-002 7.8800140e-002 5.3534730e-002
-6.0902360e-002 4.3429500e-002 4.2678530e-002
-3.1217880e-002 4.3847510e-002 4.9780920e-002
-7.5729440e-002 1.0354026e-001 3.6070970e-002
-6.2425320e-002 4.1885720e-002 1.4646770e-002
-6.1051660e-002 4.4392230e-002 1.2421940e-002
2.5855060e-002 8.9610660e-002 -2.2701840e-002
-7.7644960e-002 8.2214940e-002 3.5797660e-002
-6.0381270e-002 4.5921420e-002 4.0088740e-002
-2.4982010e-002 8.1777650e-002 5.3421060e-002
-3.4453850e-002 4.4563960e-002 4.5422990e-002
-2.9842910e-002 4.6782280e-002 4.7746920e-002
-1.5119580e-002 9.9930020e-002 4.4500270e-002
-6.7306470e-002 4.4176830e-002 7.5958300e-003
-5.7852990e-002 4.6444500e-002 1.1062610e-002
-5.1815260e-002 1.6392582e-001 1.7488800e-003
-5.5174130e-002 4.8383880e-002 3.8517780e-002
-7.8849150e-002 1.1867375e-001 5.0622870e-002
-2.7229070e-002 8.7991480e-002 4.7909730e-002
-7.5536880e-002 1.5977062e-001 -1.0438650e-002
-3.6151280e-002 4.6505140e-002 4.0740900e-002
-2.5439220e-002 9.0677870e-002 4.8852330e-002
-8.0050370e-002 1.1670406e-001 4.8762460e-002
-5.2513640e-002 4.7577880e-002 1.4858440e-002
-3.2043560e-002 5.0461830e-002 3.9341520e-002
-3.1487770e-002 4.6930210e-002 4.5253210e-002
-2.0321500e-002 9.3999570e-002 5.1588540e-002
-7.2145040e-002 9.1556450e-002 4.1494780e-002
-5.3644200e-002 4.9358170e-002 1.2201850e-002
-8.2403890e-002 1.2186563e-001 4.9365030e-002
-4.9754420e-002 4.9738300e-002 3.7037110e-002
-3.2332060e-002 4.8672840e-002 4.2523960e-002
-2.3122950e-002 9.4515900e-002 4.7358870e-002
-8.6347140e-002 9.1722090e-002 2.6811080e-002
-5.7713110e-002 4.8717820e-002 7.2765100e-003
-8.6970360e-002 8.8912090e-002 2.4879860e-002
-9.2237750e-002 1.2488519e-001 4.0786530e-002
-1.5862800e-002 9.7021620e-002 5.0139360e-002
-2.7720040e-002 5.0502090e-002 4.3340720e-002
-8.5918770e-002 1.4263412e-001 3.9849810e-002
-7.5097360e-002 9.0073560e-002 3.9581000e-002
-8.9430840e-002 1.4730552e-001 2.7694960e-002
-5.3288350e-002 5.1925760e-002 1.1730350e-002
-5.0168720e-002 5.3462260e-002 1.6255440e-002
-8.5986050e-002 1.4670902e-001 3.4827030e-002
-6.9937250e-002 8.6076860e-002 4.2175690e-002
-5.0399320e-002 5.1831330e-002 3.4037400e-002
-8.3298980e-002 1.4960772e-001 3.3740890e-002
-2.9174820e-002 5.2264530e-002 3.7637320e-002
-8.8763730e-002 1.1944938e-001 4.6560090e-002
-7.7693460e-002 1.7367969e-001 -4.1478670e-002
-8.3418140e-002 9.4127440e-002 3.0898450e-002
-5.6067510e-002 5.3470630e-002 7.3718200e-003
-7.8935630e-002 1.4817228e-001 3.9463070e-002
-6.7902770e-002 8.7817230e-002 4.3526990e-002
-4.4111240e-002 9.2883990e-002 -2.2373210e-002
-8.6605100e-002 1.3226807e-001 4.6783020e-002
-9.2654280e-002 1.2084025e-001 4.1629650e-002
-5.0887310e-002 5.2727900e-002 1.4455790e-002
-4.9763410e-002 5.6241200e-002 3.3624250e-002
-8.9771330e-002 1.2904861e-001 4.3022990e-002
-2.8054240e-002 5.4551030e-002 3.6786850e-002
-2.5867080e-002 5.6689210e-002 3.9182240e-002
-8.3702200e-002 1.2226381e-001 -3.7301400e-003
-8.1455470e-002 1.3012213e-001 5.2117660e-002
-5.1458550e-002 5.5878150e-002 1.5900350e-002
-7.8597700e-002 1.7441574e-001 -4.6607580e-002
-5.2909820e-002 5.7043070e-002 2.0988410e-002
-5.2978500e-002 5.9553770e-002 2.6211920e-002
-5.2130640e-002 5.6302970e-002 2.6672460e-002
-4.7714500e-002 6.1944520e-002 3.6705820e-002
-8.3539790e-002 8.1169560e-002 2.7014070e-002
-1.8340000e-002 5.7489970e-002 4.9763020e-002
-8.0069810e-002 9.0586130e-002 3.4593070e-002
-8.3812250e-002 8.6337700e-002 2.9223270e-002
-5.5436650e-002 5.9420250e-002 2.3018970e-002
-8.2227680e-002 1.4513771e-001 4.0600080e-002
-2.4187580e-002 7.2269150e-002 4.7681090e-002
-2.5353150e-002 6.2567200e-002 4.0642170e-002
-9.1132110e-002 1.2282100e-001 4.4115160e-002
-4.6076290e-002 1.6819719e-001 7.3744000e-004
-8.7829280e-002 1.4351461e-001 3.5707670e-002
-8.6990640e-002 1.3812326e-001 4.2316550e-002
-1.5715900e-002 6.0822970e-002 5.2365440e-002
-8.3803580e-002 1.2561100e-001 5.0440490e-002
-6.2786680e-002 1.1274190e-001 -1.3605440e-002
-8.1033840e-002 8.4698180e-002 3.3106400e-002
-8.8563540e-002 1.1624535e-001 4.5392840e-002
-2.0268380e-002 6.2266810e-002 4.8212120e-002
-1.2619630e-002 6.1635030e-002 5.4424080e-002
-7.0491190e-002 8.1818160e-002 4.0609890e-002
-8.3882520e-002 1.3331465e-001 4.9113540e-002
-5.6560350e-002 4.8355540e-002 3.6607050e-002
9.9444900e-003 1.0919723e-001 -1.9472810e-002
-5.5928250e-002 3.5917310e-002 4.6376100e-002
-7.6003260e-002 1.6361344e-001 -1.8021110e-002
-8.3798850e-002 1.0290691e-001 2.8038330e-002
-8.8252110e-002 1.2692730e-001 4.6141300e-002
-7.9126720e-002 1.0619883e-001 3.2050700e-002
-8.8206230e-002 9.4485700e-002 2.3744010e-002
-8.9110330e-002 1.3851394e-001 3.7658780e-002
-1.9321360e-002 9.2123890e-002 5.3820650e-002
-5.8265630e-002 9.0926390e-002 -2.0948690e-002
-2.7046310e-002 6.7014450e-002 3.9672140e-002
-2.1416300e-002 1.7977662e-001 -2.1732520e-002
-7.8240000e-003 1.0924112e-001 -2.2185670e-002
-2.3988340e-002 8.5995590e-002 5.3716430e-002
-6.0483580e-002 1.5567975e-001 4.3343800e-003
-8.6389150e-002 1.2168475e-001 4.8412440e-002
-7.4084360e-002 1.4987744e-001 -3.2610050e-002
-2.0580600e-002 7.9572500e-002 5.6013880e-002
-8.3837500e-002 1.3927865e-001 4.4893850e-002
-2.2933960e-002 3.5632910e-002 5.2865490e-002
-8.6153620e-002 1.2735612e-001 4.8563960e-002
-6.5728590e-002 1.0709818e-001 -1.4317670e-002
-2.1481090e-002 7.4194460e-002 5.2857680e-002
-7.6423900e-002 1.5736285e-001 -9.0354600e-003
-7.7216010e-002 8.5594880e-002 3.7420770e-002
-8.4150830e-002 1.2955013e-001 5.0483700e-002
-8.1221440e-002 8.1003250e-002 3.1255840e-002
-8.1704000e-002 1.0167226e-001 3.0939660e-002
-8.6252730e-002 1.0106846e-001 2.5413770e-002
-8.0944970e-002 1.3903572e-001 4.7359080e-002
-7.8908350e-002 9.4830900e-002 3.5435500e-002
-7.3440160e-002 9.5412600e-002 4.0210650e-002
-5.2675780e-002 8.8220740e-002 -2.1886300e-002
-7.6440670e-002 7.7511060e-002 3.3748300e-002
-2.1791140e-002 1.0658035e-001 -2.2327000e-002
-8.8360940e-002 1.4996706e-001 2.6044170e-002
-2.4078870e-002 6.7906700e-002 4.5178370e-002
-2.0018090e-002 6.7569300e-002 5.1565340e-002
-8.3577750e-002 1.2052625e-001 4.9177500e-002
-1.4655950e-002 1.7456543e-001 -2.5972690e-002
-2.7395940e-002 8.4108300e-002 4.8745680e-002
-4.1933580e-002 8.8463400e-002 -2.2126350e-002
-3.1693900e-002 1.0261265e-001 -2.2352310e-002
-2.7890200e-002 1.0440703e-001 -2.2830920e-002
-7.3790400e-002 1.2016662e-001 -7.8851200e-003
-4.6124160e-002 1.0506369e-001 -2.0457580e-002
-2.7412650e-002 7.3269450e-002 4.2641380e-002
-4.5532880e-002 3.4736480e-002 -2.1363200e-002
-4.4993030e-002 3.9017010e-002 -2.1097830e-002
-4.6462610e-002 3.6800270e-002 -1.7778710e-002
-8.8366460e-002 1.1361863e-001 5.8227800e-003
5.1746240e-002 7.2897250e-002 9.0647400e-003
-7.0385250e-002 3.7450300e-002 -9.3190000e-004
-6.0923170e-002 3.8621820e-002 2.2468850e-002
-7.7696720e-002 1.7027889e-001 -4.3117910e-002
-4.3793210e-002 1.6955506e-001 -7.3026400e-003
-7.7587180e-002 1.7717875e-001 -5.0221090e-002
-4.0541880e-002 3.8886010e-002 -2.7364950e-002
-4.4215850e-002 3.6131460e-002 -2.4252210e-002
-6.6634880e-002 4.0430310e-002 -5.0180700e-003
-6.9242120e-002 4.1474050e-002 1.9289000e-004
-7.5640690e-002 1.5930400e-001 -2.6908460e-002
-6.3087030e-002 3.9614170e-002 2.5181560e-002
-7.2303020e-002 1.5186699e-001 -4.1544310e-002
-4.1051490e-002 4.1528620e-002 -2.4061000e-002
-4.6990580e-002 3.8892380e-002 -1.4016920e-002
-8.9559690e-002 1.2851666e-001 4.5457500e-003
-7.6987340e-002 1.5369375e-001 -2.2970800e-003
-7.0121670e-002 1.6882633e-001 -5.1173650e-002
-6.4792610e-002 4.1724530e-002 3.1616900e-002
-4.2148060e-002 1.2409627e-001 -9.5602500e-003
-4.8069700e-002 1.2493027e-001 -8.4076400e-003
-4.2150480e-002 4.3343970e-002 -2.1508710e-002
-6.7315160e-002 4.4034000e-002 1.5741800e-003
-7.3386640e-002 1.5463418e-001 -2.9943830e-002
-5.5352770e-002 4.2936210e-002 1.9135490e-002
-6.0067770e-002 4.1419500e-002 2.2953280e-002
-6.5488460e-002 4.0937780e-002 3.5315470e-002
-8.0066400e-002 1.5039650e-001 6.0518000e-004
-4.4031300e-002 4.1949070e-002 -1.7993960e-002
-4.5186510e-002 4.2453420e-002 -1.4193620e-002
-8.3109430e-002 1.0265445e-001 -3.2933400e-003
-6.5472800e-002 4.5627570e-002 4.5575400e-003
-7.5427730e-002 1.5201213e-001 -1.4393690e-002
-5.4473420e-002 4.5937510e-002 2.3612600e-002
-6.2464100e-002 4.3722000e-002 2.8493310e-002
-6.2832600e-002 4.5182750e-002 3.4622890e-002
-6.3538130e-002 4.3524020e-002 3.7974010e-002
-6.0255260e-002 4.4749620e-002 -4.1316200e-003
-6.3242050e-002 4.5549700e-002 4.8428000e-004
-6.2249430e-002 4.6540050e-002 7.1903500e-003
-9.1003650e-002 1.4885725e-001 2.1507030e-002
-5.7094130e-002 4.5996540e-002 2.6865280e-002
-5.7276490e-002 4.7299580e-002 2.9889950e-002
-3.9519900e-002 1.7385855e-001 -7.5752600e-003
-8.9641110e-002 1.3841920e-001 3.4141800e-002
-9.2601430e-002 1.3018652e-001 2.5183580e-002
-9.2280860e-002 1.2762053e-001 2.9751670e-002
-3.3957310e-002 4.1025060e-002 -2.9660250e-002
-9.0199540e-002 1.1657506e-001 5.6754900e-003
-5.8515890e-002 4.7731310e-002 2.1246000e-004
-7.1723560e-002 1.4617438e-001 -2.1567820e-002
-5.2389820e-002 4.5449130e-002 1.7686300e-002
-5.9414350e-002 4.7277990e-002 3.4172420e-002
-5.7520620e-002 1.5877600e-001 4.1621200e-003
-8.0959140e-002 1.0926674e-001 -2.0189900e-003
-5.1904000e-002 4.6100060e-002 1.9421290e-002
-5.1830050e-002 4.8568730e-002 2.1647030e-002
-7.7650400e-002 1.5658012e-001 -1.6599150e-002
-3.7416450e-002 4.7682130e-002 -1.7147280e-002
-7.8876110e-002 1.5347012e-001 3.9875800e-003
-5.7635420e-002 5.0425540e-002 4.6108400e-003
-5.2625440e-002 5.0434620e-002 2.9046740e-002
-5.2998720e-002 4.9169020e-002 3.3967600e-002
-7.3502600e-002 1.6871934e-001 -4.4791800e-002
-5.4420720e-002 4.7836520e-002 -5.9186900e-003
-5.2312740e-002 5.1085350e-002 2.4485690e-002
-7.9129930e-002 1.6736568e-001 -3.5506230e-002
9.4115700e-003 1.2350285e-001 -9.8291000e-003
-3.2715700e-002 1.0896631e-001 -1.8941410e-002
-3.1133380e-002 4.9607260e-002 -1.9406940e-002
4.5997330e-002 6.9814450e-002 3.0143300e-003
3.3525460e-002 1.0966209e-001 -6.9894800e-003
-5.5047160e-002 5.2767560e-002 -3.9461300e-003
-5.6897890e-002 4.9655570e-002 -1.5319000e-003
-5.0290500e-002 4.9098930e-002 1.7164780e-002
-5.0595170e-002 4.9923270e-002 1.9174130e-002
-5.1887420e-002 5.3324670e-002 2.8705560e-002
-6.7684480e-002 1.6533627e-001 -5.5466400e-002
-3.0271440e-002 5.2106080e-002 -1.7676140e-002
-9.1087300e-003 1.1141669e-001 -2.0543230e-002
-5.7069360e-002 5.4424380e-002 2.3395500e-003
-3.2748380e-002 1.7759875e-001 -1.1627470e-002
-2.9009580e-002 5.1265290e-002 -2.2175780e-002
-3.1383130e-002 5.1791310e-002 -1.3886800e-002
-5.5673960e-002 5.6983850e-002 -3.3510400e-003
-5.0916050e-002 5.3813610e-002 1.9753140e-002
-8.8875380e-002 1.5169443e-001 2.0086580e-002
-7.7153050e-002 1.7378676e-001 -4.7867620e-002
-7.8577770e-002 1.6420639e-001 -3.1825860e-002
-2.7545910e-002 5.4021570e-002 -2.5147390e-002
-5.4463660e-002 5.5357450e-002 1.0326840e-002
-8.7041410e-002 1.3058932e-001 9.1161000e-004
-9.0009340e-002 1.3278082e-001 5.9220600e-003
-9.2232620e-002 1.3195400e-001 1.5430650e-002
-4.8639980e-002 1.6472475e-001 -5.0591500e-003
-5.4066480e-002 5.9959350e-002 -7.5992200e-003
-5.7434090e-002 5.7683500e-002 8.7259700e-003
-8.6794730e-002 1.3850688e-001 4.5575900e-003
-9.2989530e-002 1.3092307e-001 1.9919290e-002
-9.1282030e-002 1.3311897e-001 2.4688630e-002
2.1815020e-002 1.1770533e-001 -1.0015300e-002
-2.9647120e-002 5.8104260e-002 -2.1311320e-002
-3.1289530e-002 5.5208570e-002 -1.4387840e-002
-5.9002160e-002 5.9234620e-002 2.6140800e-003
-9.0241700e-002 1.3575994e-001 1.4149160e-002
-6.1569420e-002 1.7084875e-001 -6.1679170e-002
-6.6070180e-002 1.6557822e-001 -5.8644080e-002
-2.4539930e-002 1.8005865e-001 -1.8726950e-002
-1.6131750e-002 1.8298848e-001 -2.6037190e-002
-3.0809390e-002 5.6998040e-002 -1.7835020e-002
1.0464280e-002 9.6180450e-002 -2.5898970e-002
-5.7491630e-002 5.9530160e-002 -1.0786100e-003
-8.9146460e-002 1.3650500e-001 2.5952780e-002
4.3714500e-003 1.0391901e-001 -2.1515100e-002
-9.0377040e-002 1.3252490e-001 3.1082650e-002
-9.0795450e-002 1.3855232e-001 2.0562560e-002
-9.4237710e-002 1.2615419e-001 2.2201450e-002
-9.0336910e-002 1.3119830e-001 3.8138790e-002
-4.5082610e-002 1.2218447e-001 -1.1569430e-002
1.1348010e-002 9.8243750e-002 -2.3024250e-002
-3.9227920e-002 9.9184630e-002 -2.1912720e-002
-6.5509530e-002 1.5857325e-001 -5.5600270e-002
-7.7409510e-002 1.6260515e-001 -2.0754580e-002
-4.8580010e-002 1.6689211e-001 -2.5256100e-003
-7.6922910e-002 1.5351394e-001 -9.0785600e-003
-6.7750580e-002 1.5734825e-001 -5.3982110e-002
5.2906410e-002 6.5230450e-002 -5.1112000e-004
-2.9054820e-002 6.1084120e-002 -2.4918230e-002
-3.1066920e-002 6.5058860e-002 -2.2751080e-002
2.4249720e-002 1.0266151e-001 -1.8313830e-002
-5.5473660e-002 1.6050213e-001 1.3763500e-003
-6.6642850e-002 1.6040875e-001 -5.6842680e-002
-7.8200320e-002 1.6073213e-001 -2.3999690e-002
-1.8320680e-002 1.1968625e-001 -1.1110660e-002
2.1712970e-002 1.0956342e-001 -1.5081090e-002
-6.8382640e-002 1.5980248e-001 -5.4208800e-002
-2.5445620e-002 6.0208550e-002 -3.0864700e-002
-2.6540330e-002 6.5084000e-002 -3.1664870e-002
-2.8425710e-002 6.2199610e-002 -2.7938500e-002
-3.2605750e-002 6.1264600e-002 -1.5453010e-002
-7.0872290e-002 1.1611638e-001 -7.9563700e-003
-6.9780530e-002 1.5938570e-001 -4.9418240e-002
-3.0324870e-002 6.7694720e-002 -2.7654950e-002
-3.2977370e-002 6.6365180e-002 -1.8385530e-002
1.3533490e-002 1.0255388e-001 -2.1579310e-002
4.4408530e-002 6.9758860e-002 9.4765000e-004
-2.1999000e-003 1.1215881e-001 -1.9658660e-002
-7.2028500e-002 6.7046610e-002 -7.2256000e-004
-7.8699630e-002 1.7313910e-001 -4.2720470e-002
-8.3211970e-002 1.5072131e-001 4.2128500e-003
-8.7439060e-002 1.3374875e-001 2.3974700e-003
2.6348020e-002 8.4562230e-002 -2.3151710e-002
-7.4901490e-002 7.0419350e-002 -2.2854300e-003
-5.4576350e-002 9.1562950e-002 -2.2098700e-002
-7.3242520e-002 1.5231332e-001 -3.5703520e-002
-7.4550960e-002 1.7218738e-001 -4.7551010e-002
-2.8680680e-002 6.8283500e-002 -3.0610160e-002
1.7372900e-002 1.0246037e-001 -2.1487700e-002
-8.1257430e-002 7.3025200e-002 7.1020400e-003
-7.4982300e-002 1.5407794e-001 -1.8974470e-002
-9.1556500e-002 1.3196262e-001 1.0638150e-002
-8.2448000e-004 9.5165120e-002 -3.2056320e-002
-7.7618830e-002 7.3999130e-002 -5.3263500e-003
-7.9858790e-002 7.2755040e-002 3.0420200e-003
-8.1627470e-002 7.3470610e-002 1.1161690e-002
-7.3679290e-002 1.4785987e-001 -2.0236290e-002
-9.1309820e-002 1.4848588e-001 1.6270070e-002
-9.0850140e-002 1.4625613e-001 1.4809050e-002
-6.8543890e-002 1.7513008e-001 -5.7187900e-002
-2.7253960e-002 1.0747453e-001 -2.1279680e-002
2.1443580e-002 1.2273826e-001 -2.9316700e-003
-7.9061200e-002 7.3724300e-002 -8.4521000e-004
-8.2063500e-002 7.5993670e-002 1.7615500e-003
-8.3736580e-002 7.6771840e-002 8.9586000e-003
-9.0205720e-002 1.4947775e-001 1.3035090e-002
8.4818000e-004 1.1670025e-001 -1.7337090e-002
-7.4577550e-002 1.5164041e-001 -2.8647990e-002
-2.9087460e-002 7.2924630e-002 -3.3354470e-002
-3.1184020e-002 7.3989530e-002 -3.0339870e-002
-3.2606620e-002 7.1955620e-002 -2.4866580e-002
-8.0575990e-002 7.6607800e-002 -2.9879400e-003
-8.9491020e-002 1.4392581e-001 1.2488490e-002
-7.7388410e-002 1.4656426e-001 -4.3543000e-003
-7.2896160e-002 1.5834962e-001 -3.4109420e-002
7.1346500e-003 1.1468229e-001 -1.8345640e-002
-3.4502610e-002 7.6130020e-002 -2.2373150e-002
-8.3890740e-002 8.0789530e-002 2.2951400e-003
-8.3740480e-002 7.7240270e-002 4.6673300e-003
-8.6204620e-002 8.0930750e-002 1.0535420e-002
-8.6061500e-002 7.9931100e-002 1.4440780e-002
-8.1542760e-002 7.7950660e-002 2.6727280e-002
2.6666170e-002 1.1268609e-001 -1.0509540e-002
-7.6041430e-002 1.5663068e-001 -2.1420480e-002
-9.0012110e-002 1.5083344e-001 1.5752740e-002
-7.1156510e-002 1.6335125e-001 -4.5360530e-002
-3.3210960e-002 7.6873190e-002 -2.7708380e-002
-7.3263090e-002 7.9983830e-002 -1.3749940e-002
-7.9285950e-002 8.0048830e-002 -7.0125500e-003
-8.6034510e-002 8.2645720e-002 1.9542680e-002
-8.4335410e-002 8.0729950e-002 2.2180460e-002
-7.1351460e-002 1.5727092e-001 -4.2183090e-002
-7.3548450e-002 1.6120822e-001 -3.5288420e-002
1.6732620e-002 1.0991230e-001 -1.7020040e-002
-3.0978770e-002 7.7020860e-002 -3.2816490e-002
-6.2359240e-002 1.7544824e-001 -6.1485990e-002
-1.7587870e-002 1.1491318e-001 -1.7205040e-002
-8.2354050e-002 8.0876320e-002 -2.4038900e-003
-7.8578910e-002 1.4050129e-001 -4.6031000e-003
-2.8931080e-002 7.9247620e-002 -3.5049800e-002
-3.1225710e-002 8.0413100e-002 -3.2182320e-002
-3.3258680e-002 7.9621670e-002 -2.7146060e-002
-4.4697400e-002 1.1791537e-001 -1.4725860e-002
-7.9723740e-002 8.4226660e-002 -8.7608600e-003
-8.5042160e-002 8.3817830e-002 -7.7640000e-005
-8.6776400e-002 8.4344860e-002 1.2419030e-002
-8.6674670e-002 8.2665010e-002 1.5174340e-002
-8.5106250e-002 8.5176580e-002 2.5679440e-002
-7.6975760e-002 8.2935940e-002 -1.1450630e-002
-8.2776390e-002 8.3430890e-002 -4.3687000e-003
-8.6180440e-002 8.2572150e-002 6.3639000e-003
-9.1160820e-002 1.4144362e-001 1.5673910e-002
-7.4638800e-002 1.4398484e-001 -7.1504600e-003
-8.3448500e-002 1.3393299e-001 -1.6873200e-003
-7.5804700e-002 1.5134475e-001 -1.9881200e-002
-7.4924140e-002 1.5273013e-001 -1.9397440e-002
-5.2314440e-002 1.2159646e-001 -1.0798060e-002
-3.0734050e-002 8.5427560e-002 -3.0506670e-002
-3.2590560e-002 8.1942660e-002 -2.9100210e-002
-8.6454830e-002 8.6940490e-002 9.1667000e-004
-1.2501820e-002 1.0634409e-001 -2.2360190e-002
-8.8585880e-002 1.4605869e-001 9.8780000e-003
-8.5609750e-002 1.4712513e-001 6.5981100e-003
-8.7511210e-002 1.5061504e-001 1.0152460e-002
-6.0113540e-002 3.5550440e-002 4.4907580e-002
-8.8284200e-002 8.6869110e-002 8.1029200e-003
-8.8812560e-002 8.7765490e-002 1.4226540e-002
-8.8001070e-002 8.6626430e-002 1.5466680e-002
-8.6991110e-002 8.6444700e-002 2.2420950e-002
-7.4609990e-002 1.4727815e-001 -1.4172380e-002
-3.4707910e-002 8.4035880e-002 -2.4302260e-002
-8.4964900e-002 8.9962540e-002 -3.0068000e-003
-8.8091450e-002 8.7741580e-002 4.8489900e-003
-9.1490470e-002 1.4543178e-001 2.2277220e-002
-9.4380420e-002 1.2183919e-001 1.7904340e-002
-2.9164530e-002 8.5393440e-002 -3.3666780e-002
-3.0557790e-002 8.8625920e-002 -2.7550670e-002
-7.7770550e-002 8.7844840e-002 -1.1694810e-002
-8.0728260e-002 8.8204150e-002 -7.8003100e-003
-8.3272540e-002 8.9476690e-002 -5.6502900e-003
-8.9398710e-002 8.9539000e-002 1.1645550e-002
-8.9698390e-002 1.3971257e-001 1.3774760e-002
-7.7134890e-002 1.5151225e-001 -5.5823000e-003
-5.1121410e-002 1.6374125e-001 -2.6640500e-003
-8.6442960e-002 1.2767438e-001 -1.4864100e-003
-6.9605590e-002 1.5490763e-001 -5.0188670e-002
-8.7265180e-002 9.2110030e-002 4.2059000e-003
-8.9086250e-002 9.2377120e-002 1.0569860e-002
-8.9612340e-002 9.1599880e-002 1.7812280e-002
-8.2732460e-002 1.4196856e-001 1.2529100e-003
-7.2618370e-002 1.4368135e-001 -1.0987100e-002
-7.7677230e-002 1.6610992e-001 -3.6777320e-002
-1.5078060e-002 9.3863440e-002 -3.4317310e-002
-7.1057280e-002 1.5476885e-001 -4.5778530e-002
-9.2331920e-002 1.2523886e-001 9.1589500e-003
-7.6046700e-002 9.1037250e-002 -1.3643150e-002
-8.2942810e-002 9.3291700e-002 -6.1856300e-003
-1.0411170e-002 9.4592340e-002 -3.3784850e-002
-2.9331140e-002 1.1476230e-001 -1.5844640e-002
-3.7218250e-002 1.1594244e-001 -1.5173050e-002
-1.2429920e-002 1.0286006e-001 -2.3822480e-002
6.6509600e-003 8.8144500e-002 -3.2945810e-002
-6.4119900e-003 9.2876210e-002 -3.4817640e-002
1.5800150e-002 1.1996558e-001 -1.1415630e-002
2.9102740e-002 1.0247506e-001 -1.5768380e-002
4.2080690e-002 6.3480630e-002 -2.5405300e-003
2.8723120e-002 9.7943220e-002 -1.7497350e-002
-1.9987640e-002 1.0278313e-001 -2.3392920e-002
3.3748350e-002 8.3644140e-002 -1.8630450e-002
-1.8685680e-002 1.8689625e-001 -2.0248700e-002
6.4154900e-003 1.1790181e-001 -1.6282740e-002
5.6305210e-002 6.7769910e-002 2.6525000e-003
-5.3608300e-003 1.1289400e-001 -1.9613290e-002
4.5769430e-002 6.4628800e-002 -1.2166100e-003
-1.0090870e-002 9.8229650e-002 -2.7731360e-002
-6.0458520e-002 1.1755645e-001 -1.1354580e-002
1.2933940e-002 1.1887250e-001 -1.3979370e-002
1.5235680e-002 9.4977900e-002 -2.4437140e-002
-3.0892950e-002 4.7409030e-002 -2.4954000e-002
-1.7766190e-002 1.8572344e-001 -2.3049280e-002
-1.3034890e-002 1.1002855e-001 -2.0161170e-002
-7.1206550e-002 3.8608570e-002 7.7218000e-004
1.7904800e-002 1.0627709e-001 -1.7729250e-002
-3.3623490e-002 1.1840428e-001 -1.1927480e-002
-4.9906840e-002 1.1788332e-001 -1.4402480e-002
-6.6878100e-003 1.1747209e-001 -1.5359280e-002
-1.5451470e-002 1.8597600e-001 -2.4795870e-002
-3.0603900e-002 3.8038460e-002 -3.0123840e-002
-1.3220270e-002 1.8397188e-001 -2.7519460e-002
-4.7859450e-002 1.1162729e-001 -1.7482120e-002
-1.3098990e-002 9.0776040e-002 -3.6659270e-002
-6.3117340e-002 1.5425437e-001 2.9730400e-003
-5.5139750e-002 1.1051601e-001 -1.7672740e-002
-1.1096770e-002 1.8202324e-001 -2.8042450e-002
-2.6568900e-002 3.4695830e-002 -2.9113750e-002
-6.6396600e-003 1.0222209e-001 -2.3519320e-002
-5.6996400e-002 1.5741713e-001 6.0244000e-004
1.9076550e-002 9.1870620e-002 -2.4890230e-002
1.3473090e-002 1.2429893e-001 -6.8361400e-003
-2.1730490e-002 9.8410960e-002 -2.4306850e-002
-1.7142170e-002 9.8057460e-002 -2.4924330e-002
-5.8698110e-002 1.5137318e-001 -6.5801000e-004
3.5641100e-003 1.2764883e-001 -4.4672400e-003
-8.5369800e-003 9.9921220e-002 -2.4351070e-002
-1.2171980e-002 1.8125102e-001 -2.9061170e-002
-6.1113980e-002 1.5305212e-001 9.9983000e-004
-2.9570620e-002 1.1713871e-001 -1.3675530e-002
3.0530110e-002 1.1221207e-001 -8.1860600e-003
-3.1714100e-002 3.5111530e-002 -3.0658990e-002
-1.3691130e-002 1.7914707e-001 -2.8126410e-002
1.1620840e-002 1.1548972e-001 -1.6385680e-002
-6.1993570e-002 1.5028063e-001 -1.6297100e-003
3.6684020e-002 1.0099570e-001 -9.8485900e-003
4.8512670e-002 7.1798180e-002 6.0005000e-003
-4.6583000e-004 1.1983662e-001 -1.3610580e-002
1.6747170e-002 9.0113950e-002 -2.7127190e-002
6.9832400e-003 9.7730080e-002 -2.4800310e-002
-4.3226830e-002 4.6263570e-002 -1.1771730e-002
-8.3562500e-003 1.1373600e-001 -1.8239810e-002
-1.2354410e-002 1.1556773e-001 -1.6486930e-002
4.6834470e-002 7.4354100e-002 1.0139500e-002
2.5319170e-002 1.0931725e-001 -1.3579660e-002
-4.2459500e-002 1.1392482e-001 -1.6188050e-002
5.7744640e-002 6.4158440e-002 2.6277600e-003
-5.9710530e-002 3.6535780e-002 -9.4949000e-003
-3.2078400e-003 1.0962100e-001 -2.1523850e-002
2.7020740e-002 6.1345700e-002 -2.2292060e-002
7.1030200e-003 1.0191162e-001 -2.1230990e-002
-3.8225680e-002 1.2465525e-001 -7.3257400e-003
2.5941540e-002 1.1576352e-001 -8.2193900e-003
-6.1297960e-002 3.3900220e-002 -9.3216600e-003
-5.9466670e-002 1.4743956e-001 -1.8885400e-003
1.0506610e-002 1.0087700e-001 -2.2109510e-002
3.3081340e-002 1.0273382e-001 -1.2787210e-002
1.2517840e-002 1.0475378e-001 -1.9915960e-002
2.3087990e-002 9.3998720e-002 -2.2210680e-002
3.1555430e-002 9.2484730e-002 -1.8204280e-002
6.2723100e-003 9.9910370e-002 -2.2296890e-002
-4.0917240e-002 4.6121780e-002 -1.7942580e-002
3.5407360e-002 9.8188850e-002 -1.2008970e-002
9.4135900e-003 1.2121902e-001 -1.2937780e-002
5.3735190e-002 7.2027350e-002 6.8010000e-003
2.5620340e-002 1.1880719e-001 -5.0330800e-003
-3.8150260e-002 4.2466610e-002 -2.6893990e-002
-2.8212410e-002 1.1116862e-001 -1.8001930e-002
-6.0253590e-002 1.4339100e-001 -3.7906300e-003
1.9016880e-002 1.0401450e-001 -1.9333120e-002
7.5446700e-003 9.1682150e-002 -3.1643140e-002
-7.0760800e-003 1.2240119e-001 -1.1364410e-002
-1.9047500e-002 9.6562130e-002 -2.7579900e-002
-1.6953390e-002 1.0669256e-001 -2.2002990e-002
-6.7307000e-004 1.0119875e-001 -2.2857770e-002
-9.0179300e-003 1.2528031e-001 -7.7912000e-003
-6.8136180e-002 1.8006113e-001 -5.8816050e-002
-2.3600190e-002 1.1513818e-001 -1.5577390e-002
-5.9831220e-002 4.2842260e-002 -6.6469100e-003
5.3124070e-002 5.9012380e-002 -2.8853800e-003
-3.6931840e-002 3.7107370e-002 -2.9714170e-002
-5.6215140e-002 1.4139213e-001 -2.8027300e-003
3.6695880e-002 1.0372844e-001 -7.9621500e-003
-3.5885070e-002 1.2040038e-001 -1.0640470e-002
-9.3569500e-003 8.5423730e-002 -3.8112540e-002
-6.0127340e-002 1.2041391e-001 -9.3791100e-003
-3.9842790e-002 1.2156113e-001 -1.1570310e-002
2.8322200e-002 1.0847957e-001 -1.2623390e-002
-1.8733500e-003 1.1593910e-001 -1.7169430e-002
3.8648150e-002 9.0153340e-002 -1.2549680e-002
-1.7359200e-003 9.2244170e-002 -3.4310460e-002
5.0000820e-002 6.1612070e-002 -3.4649900e-003
5.5858960e-002 6.2910170e-002 6.9037000e-004
2.0461520e-002 1.1515372e-001 -1.3103780e-002
-1.5165840e-002 1.1798075e-001 -1.4465520e-002
-7.0859540e-002 7.1510150e-002 3.3895100e-002
2.2674030e-002 8.6606050e-002 -2.4925490e-002
3.5358840e-002 8.7438890e-002 -1.7109050e-002
1.8400920e-002 1.2145507e-001 -7.6804200e-003
-2.5425900e-002 4.1421010e-002 -2.9204830e-002
-8.2085100e-003 9.6777440e-002 -3.0809780e-002
-5.6810660e-002 3.3873940e-002 -1.1166310e-002
-3.4588640e-002 4.4744960e-002 -2.7122900e-002
-4.0251680e-002 1.1827531e-001 -1.3674080e-002
1.6387020e-002 1.1402346e-001 -1.5496900e-002
4.2635280e-002 6.0797460e-002 -3.4583700e-003
-5.0687200e-002 3.5935870e-002 -1.2380790e-002
7.3446800e-003 9.4509570e-002 -2.9683220e-002
-1.9706700e-002 9.2917340e-002 -3.4636880e-002
-1.2083040e-002 1.2219229e-001 -9.7120900e-003
4.8805930e-002 6.8457810e-002 1.6952900e-003
-3.0869700e-003 9.8402500e-002 -2.7403170e-002
-5.3198790e-002 1.3672896e-001 -1.6580500e-003
-4.7290060e-002 1.3055355e-001 1.6909100e-003
4.4651700e-003 1.2044039e-001 -1.3931400e-002
-2.3850100e-003 1.2290534e-001 -1.0382460e-002
-2.4833330e-002 9.5858030e-002 -2.5162110e-002
-4.2296900e-002 3.6291920e-002 -2.7253600e-002
-5.4388260e-002 1.3404922e-001 -3.9920400e-003
-5.0539380e-002 1.3336659e-001 -1.0872200e-003
2.6040300e-003 9.6942660e-002 -2.8407060e-002
-7.8163100e-003 1.2821209e-001 -1.9430400e-003
6.5111700e-003 1.3002517e-001 9.2881000e-004
3.4742860e-002 9.2274140e-002 -1.5654590e-002
-6.7787700e-002 1.8088887e-001 -5.8191050e-002
-3.3715410e-002 1.1151566e-001 -1.8078440e-002
4.4630400e-003 1.2427294e-001 -9.4291400e-003
-2.3370170e-002 9.3392760e-002 -3.2031820e-002
-4.8982070e-002 1.2980647e-001 -1.3229400e-003
-7.8164000e-004 1.2822918e-001 -3.2490000e-003
2.4960400e-003 8.9857600e-002 -3.3628450e-002
7.4553300e-003 1.1196790e-001 -1.9554260e-002
2.8791140e-002 9.1157340e-002 -2.0370210e-002
-5.3590150e-002 1.2437450e-001 -7.3470400e-003
-4.7743630e-002 1.2064432e-001 -1.2812990e-002
-1.9616230e-002 1.2109197e-001 -9.5487700e-003
-6.5047370e-002 1.7999148e-001 -5.9758600e-002
-5.1704160e-002 3.7620360e-002 -1.1763450e-002
-5.2124270e-002 1.2929832e-001 -4.1187000e-003
-4.5334450e-002 1.2891494e-001 1.5819100e-003
-3.0471200e-003 1.2919453e-001 -1.0688000e-003
7.2129600e-003 1.2721957e-001 -5.2073700e-003
1.1669320e-002 1.2720154e-001 -3.1850900e-003
5.3056400e-002 6.9708830e-002 3.1291400e-003
-6.3021150e-002 1.7810951e-001 -6.0393570e-002
2.8204800e-002 6.4391270e-002 -2.0698040e-002
3.4400180e-002 1.0503000e-001 -1.0224920e-002
3.0975190e-002 1.0790250e-001 -1.1058430e-002
-4.8984390e-002 1.1480518e-001 -1.5966690e-002
-3.2821710e-002 1.2300500e-001 -5.9088300e-003
-5.0792860e-002 1.2716487e-001 -4.8183200e-003
-3.5301670e-002 1.2547815e-001 -3.1542800e-003
5.6455250e-002 6.9951490e-002 4.9191700e-003
-1.6240450e-002 1.2512177e-001 -3.6499700e-003
-1.6970400e-002 1.1119793e-001 -1.9586410e-002
-5.4088120e-002 3.9781210e-002 -1.0544680e-002
-3.4190490e-002 4.7514010e-002 -2.2301500e-002
1.3699090e-002 9.3914220e-002 -2.6427690e-002
8.8000000e-004 9.9234930e-002 -2.4355670e-002
-4.6459460e-002 1.2723953e-001 -4.8843300e-003
-4.1735500e-002 1.2687599e-001 -4.1742000e-003
-2.1000480e-002 1.2313643e-001 -6.1190100e-003
-1.2130450e-002 1.2572568e-001 -5.2007900e-003
-4.3822400e-003 1.2640753e-001 -6.9495200e-003
1.4085700e-003 3.4781990e-002 -2.3265200e-002
-1.4846200e-002 3.5070930e-002 -2.6071900e-002
-2.1399500e-002 3.4795120e-002 -2.7958820e-002
1.2009220e-002 3.5961900e-002 -2.1735750e-002
3.8249200e-003 3.6129220e-002 -2.3878090e-002
-5.1139560e-002 9.6617580e-002 -2.2095120e-002
-5.4813320e-002 9.8102480e-002 -2.1425370e-002
-2.7597040e-002 1.6979824e-001 -1.8170420e-002
1.3359870e-002 3.9377410e-002 -2.2496330e-002
4.3919300e-003 3.8674430e-002 -2.4170290e-002
-6.8478200e-003 3.6444540e-002 -2.5177120e-002
-1.3280260e-002 3.7699590e-002 -2.6391810e-002
-4.7672760e-002 3.6116650e-002 -1.3301210e-002
-4.5590120e-002 1.0853826e-001 -1.8796680e-002
-5.0095670e-002 1.0990925e-001 -1.8504510e-002
-6.5766640e-002 3.6469550e-002 -7.2073000e-003
-2.3455840e-002 1.6824727e-001 -1.8822880e-002
-4.5918000e-003 3.8404570e-002 -2.5412870e-002
-2.4954130e-002 3.7441060e-002 -2.9152720e-002
2.9007770e-002 3.7358220e-002 -2.7474000e-004
-7.9468800e-003 4.1489920e-002 -2.5911270e-002
-1.6803800e-002 3.9753810e-002 -2.7565350e-002
-6.5156150e-002 1.4034537e-001 -7.6848600e-003
-4.7080100e-002 4.0700690e-002 -1.1869830e-002
-6.8470630e-002 3.7477700e-002 -4.9557400e-003
3.7326850e-002 4.0209510e-002 -8.5850000e-004
3.5349870e-002 4.1257050e-002 -2.8075100e-003
5.1820700e-003 4.1536320e-002 -2.4065670e-002
1.8660660e-002 1.0030784e-001 -2.2127290e-002
-6.0510780e-002 1.0748450e-001 -1.7042300e-002
-6.2374340e-002 4.0146090e-002 -7.4040200e-003
2.5456950e-002 3.9483890e-002 -4.0251400e-003
-2.2828000e-004 4.3394940e-002 -2.5124420e-002
-8.1088400e-003 4.3439060e-002 -2.6140070e-002
-1.7362450e-002 4.3237420e-002 -2.7665190e-002
-2.6416670e-002 4.4674020e-002 -2.8209740e-002
3.8064500e-003 1.0944331e-001 -2.0203790e-002
-5.8232370e-002 9.5690400e-002 -2.0616030e-002
-6.6122370e-002 4.2341260e-002 -2.7538800e-003
-6.0959920e-002 9.4173040e-002 -1.9015670e-002
3.1352250e-002 4.2649280e-002 -4.6745000e-003
-3.3540900e-002 3.6342620e-002 4.9089960e-002
1.7252780e-002 4.4335610e-002 -2.3067190e-002
1.0637660e-002 4.4161560e-002 -2.4926170e-002
4.3843100e-003 4.5806710e-002 -2.6788990e-002
-8.2506400e-003 4.5148720e-002 -2.8441070e-002
-1.5748410e-002 4.5043860e-002 -2.7877790e-002
2.8990330e-002 4.4697850e-002 -6.1863000e-003
8.1686400e-003 4.5053030e-002 -2.5178740e-002
-9.6291000e-004 4.5378230e-002 -2.7308280e-002
-1.7033400e-003 4.7819200e-002 -2.9928930e-002
-3.1535830e-002 4.4740410e-002 -2.8079410e-002
-3.3619650e-002 1.5691468e-001 -1.1024870e-002
-5.0751180e-002 4.3109620e-002 -1.0018680e-002
3.6890890e-002 4.7353200e-002 -6.1057100e-003
2.4975630e-002 4.2644580e-002 -7.0169900e-003
2.4562420e-002 4.8369560e-002 -1.9672760e-002
1.3964040e-002 4.5579170e-002 -2.4706510e-002
1.3376130e-002 4.8630300e-002 -2.6551500e-002
3.7308900e-003 4.8127990e-002 -2.9025970e-002
-8.7947000e-003 4.7056850e-002 -2.9881630e-002
-1.3753770e-002 5.1865060e-002 -3.2243480e-002
-2.1200840e-002 4.6657090e-002 -2.7951320e-002
3.9693540e-002 4.5658580e-002 -4.5274100e-003
3.3627400e-002 4.8717730e-002 -6.3904600e-003
-6.5352120e-002 9.9294570e-002 -1.6820150e-002
1.2868100e-003 5.0383670e-002 -3.0357440e-002
-8.1797500e-003 4.9845800e-002 -3.1071390e-002
-1.7184350e-002 4.8210500e-002 -2.9741930e-002
-2.6049450e-002 4.7692500e-002 -2.6149500e-002
-8.4747010e-002 1.1078350e-001 3.9488380e-002
-5.1316870e-002 4.8270690e-002 -7.9310500e-003
-8.2506510e-002 1.2765487e-001 -4.6796400e-003
3.8663690e-002 5.1696670e-002 -6.6910200e-003
-7.5643160e-002 9.9440450e-002 -1.1927610e-002
2.0284470e-002 5.1349190e-002 -2.4895380e-002
5.9436000e-003 5.0976660e-002 -2.9119360e-002
-2.5528290e-002 5.1472710e-002 -2.6884680e-002
-3.5562670e-002 4.9399890e-002 -1.2865040e-002
-4.2818980e-002 1.6220182e-001 -1.0337510e-002
-6.5593600e-002 1.7665711e-001 -6.0504730e-002
-3.4151080e-002 1.7442797e-001 -1.3312550e-002
4.3673180e-002 5.0162230e-002 -5.9843500e-003
-5.0342410e-002 1.5546197e-001 -5.1927700e-003
2.5464180e-002 5.4029700e-002 -2.1691010e-002
1.0149790e-002 4.9258540e-002 -2.7750590e-002
-2.2043190e-002 5.3612020e-002 -3.0135610e-002
-3.2875520e-002 5.1677630e-002 -1.0888650e-002
-3.7613820e-002 4.9534770e-002 -1.1626140e-002
-4.0750630e-002 4.9285110e-002 -1.1286200e-002
-4.6385170e-002 4.7490850e-002 -1.0085980e-002
4.4473170e-002 5.3293010e-002 -6.3327900e-003
3.3205620e-002 5.1020650e-002 -7.2382500e-003
1.5678350e-002 5.1169270e-002 -2.6397810e-002
6.8341700e-003 5.5010170e-002 -3.0561130e-002
2.1424700e-003 5.5502800e-002 -3.1334400e-002
5.9285000e-004 5.2867950e-002 -3.0513830e-002
-3.6481400e-003 5.1869000e-002 -3.1457940e-002
-9.4245600e-003 5.5399220e-002 -3.3653980e-002
-1.9302150e-002 5.8224770e-002 -3.3919700e-002
-6.1084270e-002 1.3386190e-001 -7.2248900e-003
-4.3309760e-002 5.5656840e-002 -1.1402110e-002
-6.1080540e-002 1.6833773e-001 -5.9192060e-002
4.7574690e-002 5.2943630e-002 -5.1300300e-003
-3.7403030e-002 1.1150775e-001 -1.8243310e-002
1.9972490e-002 5.4409710e-002 -2.7108230e-002
5.3974800e-003 5.8382570e-002 -3.0903760e-002
-1.0603590e-002 5.3602910e-002 -3.3403350e-002
-3.4998290e-002 5.2331560e-002 -1.0347380e-002
-4.6471230e-002 5.1304340e-002 -9.8299800e-003
-6.7945360e-002 1.1493603e-001 -9.5107300e-003
-7.1048210e-002 1.5161088e-001 -4.4679270e-002
-5.8903800e-003 3.4790620e-002 -2.4224470e-002
1.6842140e-002 5.5555670e-002 -2.8284560e-002
1.0711040e-002 5.4687610e-002 -2.9767520e-002
-1.1826800e-003 5.9492420e-002 -3.3360920e-002
-5.2325900e-003 5.5688960e-002 -3.2840220e-002
-5.1705830e-002 5.2470760e-002 -7.4047200e-003
-5.2626360e-002 6.0043760e-002 -8.9566900e-003
-7.2598590e-002 9.7762720e-002 -1.4434510e-002
4.4331260e-002 5.5818010e-002 -6.0362700e-003
3.8463400e-002 5.4934820e-002 -6.1822500e-003
3.8838620e-002 5.7808260e-002 -5.2584800e-003
-9.2015400e-003 5.9510130e-002 -3.4437110e-002
-3.5262560e-002 5.5284900e-002 -1.0545060e-002
-3.8336450e-002 5.4503540e-002 -1.0905320e-002
-1.7727540e-002 3.6289540e-002 5.2222250e-002
5.0006490e-002 5.8095800e-002 -4.6211800e-003
4.6133970e-002 5.9278810e-002 -4.7769600e-003
1.5110300e-002 5.9819840e-002 -2.8645750e-002
1.0312380e-002 5.7586530e-002 -2.9995250e-002
-6.1353400e-003 6.0256790e-002 -3.4695830e-002
-1.2318220e-002 5.9396390e-002 -3.5268510e-002
-1.4466910e-002 6.3136020e-002 -3.6865870e-002
-4.6650260e-002 5.9840950e-002 -1.2135840e-002
-5.6572080e-002 1.2480275e-001 -7.1885700e-003
-7.9237500e-002 1.2055419e-001 -5.6744800e-003
-7.9334790e-002 1.2560650e-001 -6.1175900e-003
2.2340000e-002 5.8492230e-002 -2.6014120e-002
7.6270400e-003 6.2098330e-002 -3.1135840e-002
3.3101700e-003 6.0456840e-002 -3.2481070e-002
-1.6811880e-002 6.1275230e-002 -3.5929330e-002
-3.2491910e-002 5.7196350e-002 -1.2104730e-002
-3.4108240e-002 6.1466560e-002 -1.3053130e-002
-3.3896980e-002 5.7025330e-002 -1.1047570e-002
-3.8623580e-002 5.8303290e-002 -1.1505750e-002
-4.5008400e-002 6.2723940e-002 -1.3390450e-002
-5.6896010e-002 1.3398739e-001 -5.6270700e-003
-4.4853890e-002 1.5746031e-001 -8.6731600e-003
-7.8609550e-002 6.9656870e-002 1.1810740e-002
-2.3730020e-002 1.0186156e-001 -2.3836400e-002
-2.8122930e-002 9.9322390e-002 -2.3580130e-002
-5.0076720e-002 1.4997652e-001 -3.6419700e-003
-3.3048420e-002 9.5958590e-002 -2.3426460e-002
1.9520390e-002 6.2064770e-002 -2.7292470e-002
-3.8864710e-002 1.0333987e-001 -2.0641400e-002
-4.8952940e-002 5.6281090e-002 -1.0220880e-002
-5.3993040e-002 1.4498656e-001 -1.1093400e-003
-4.5530560e-002 9.8510850e-002 -2.1729510e-002
-5.0910960e-002 1.0074570e-001 -2.1619430e-002
2.3245830e-002 6.2792530e-002 -2.5047990e-002
9.7412800e-003 6.3181400e-002 -3.1141370e-002
-8.6614000e-004 6.4559630e-002 -3.4490930e-002
-8.5264000e-003 6.4001730e-002 -3.5850480e-002
-4.8451500e-002 6.4794120e-002 -1.3029910e-002
-5.2325160e-002 1.0614813e-001 -1.9271240e-002
-5.5265350e-002 1.0216682e-001 -1.9897100e-002
-5.9042010e-002 9.9032210e-002 -1.9222950e-002
-5.7846760e-002 1.0433496e-001 -1.8525740e-002
-2.7113460e-002 1.7332156e-001 -1.8538890e-002
2.2832000e-002 6.7082570e-002 -2.6297510e-002
1.4519060e-002 6.4595540e-002 -2.9855690e-002
1.1471330e-002 6.7581440e-002 -3.0901170e-002
-1.7739360e-002 6.6260830e-002 -3.7657310e-002
-6.5059750e-002 1.3452104e-001 -8.0899900e-003
-7.5829320e-002 1.4244605e-001 -5.8090000e-003
-4.1362350e-002 6.1637330e-002 -1.2813770e-002
-5.6147890e-002 6.1921550e-002 -5.7541100e-003
-6.2126110e-002 6.2845360e-002 -4.5202600e-003
-3.7292480e-002 1.6449057e-001 -1.3627050e-002
-1.9818920e-002 1.6509494e-001 -1.7608980e-002
6.2881100e-003 6.5416350e-002 -3.2563040e-002
-5.9250500e-003 6.9515630e-002 -3.5933480e-002
-1.0538630e-002 6.7999180e-002 -3.6517060e-002
-3.5385700e-002 6.6817430e-002 -1.5434860e-002
-5.3994500e-002 6.4638700e-002 -9.3254900e-003
-6.3852310e-002 6.5572310e-002 -6.9393300e-003
-6.3920880e-002 1.2774242e-001 -8.5494600e-003
-2.6940700e-002 3.6184050e-002 5.3351850e-002
1.9618650e-002 6.7007390e-002 -2.8356120e-002
1.2275180e-002 6.9933940e-002 -3.1553160e-002
5.4265100e-003 6.8247960e-002 -3.2730520e-002
-4.4084200e-003 6.6619200e-002 -3.4870250e-002
-2.1911350e-002 6.7144790e-002 -3.6535750e-002
-4.5643150e-002 1.5466949e-001 -7.2969400e-003
-5.1673460e-002 6.6850660e-002 -1.2120350e-002
-5.8105180e-002 6.6465950e-002 -1.0044340e-002
-5.6992260e-002 1.4311862e-001 -2.2403000e-003
-8.0651110e-002 1.3119854e-001 -4.4397800e-003
-5.6544310e-002 1.2850938e-001 -6.2014700e-003
1.7758080e-002 7.0138540e-002 -2.9404680e-002
6.4980500e-003 7.0791870e-002 -3.3525310e-002
7.5831000e-004 7.0434460e-002 -3.4462560e-002
-1.3235950e-002 6.9292820e-002 -3.7917490e-002
-6.7390780e-002 1.1889688e-001 -8.7301400e-003
-3.8119520e-002 6.4162310e-002 -1.3829140e-002
1.8527400e-003 1.1303356e-001 -1.9794270e-002
-7.5950810e-002 6.8170610e-002 1.8117970e-002
-1.0001990e-002 7.2671480e-002 -3.7661370e-002
-1.7976070e-002 7.0613770e-002 -3.8443880e-002
-2.3035990e-002 7.2778460e-002 -3.8072640e-002
-2.6120100e-002 7.1177480e-002 -3.5451530e-002
-6.8535420e-002 1.3929375e-001 -7.8046600e-003
-3.5263040e-002 7.1067650e-002 -1.8011860e-002
-4.1558180e-002 6.9774010e-002 -1.6774100e-002
-5.2831730e-002 7.0298920e-002 -1.4864960e-002
-6.6978850e-002 6.7638980e-002 -6.8094400e-003
-1.0244470e-002 1.7895826e-001 -2.9538870e-002
-7.5272650e-002 1.2680098e-001 -8.0241700e-003
-8.7359900e-002 1.1248315e-001 4.2049490e-002
8.7503000e-003 7.4301560e-002 -3.3398210e-002
-6.4249520e-002 1.6045024e-001 -5.7041470e-002
-4.4354010e-002 7.3372220e-002 -1.7874430e-002
-4.5762580e-002 6.9445320e-002 -1.5928780e-002
-4.7957440e-002 7.2542990e-002 -1.6106990e-002
-5.7822630e-002 6.9538010e-002 -1.4416470e-002
-7.2071600e-002 7.1538150e-002 -7.4714400e-003
2.5472930e-002 7.4094500e-002 -2.4938540e-002
1.5719730e-002 7.3756350e-002 -2.9747770e-002
4.8214000e-003 7.3763980e-002 -3.4552450e-002
-2.2528600e-003 7.3921320e-002 -3.5887190e-002
-7.3834900e-003 7.4799620e-002 -3.7223830e-002
-2.0225340e-002 7.7095190e-002 -3.9044290e-002
-3.4016180e-002 7.2101270e-002 -2.0823150e-002
-3.8493370e-002 7.2839870e-002 -1.7502230e-002
-6.4392550e-002 7.3116330e-002 -1.5335340e-002
-6.4480660e-002 7.0187350e-002 -1.2261750e-002
-2.3854330e-002 1.6164528e-001 -1.4504190e-002
2.2104450e-002 7.2692600e-002 -2.6900140e-002
1.5532370e-002 7.6586960e-002 -2.9606940e-002
1.1574050e-002 7.4860570e-002 -3.1383860e-002
-1.4731560e-002 7.7640750e-002 -3.8490670e-002
-1.6018820e-002 7.4288800e-002 -3.8864420e-002
-5.1103620e-002 7.3071950e-002 -1.6243060e-002
-5.7989540e-002 7.4017880e-002 -1.7522320e-002
-6.9608380e-002 7.2322890e-002 -1.0934430e-002
-7.5996110e-002 1.1714132e-001 -6.5577200e-003
-3.7987660e-002 1.0751453e-001 -1.9975760e-002
1.0696210e-002 7.9889200e-002 -3.2009580e-002
-5.3433400e-003 7.8264580e-002 -3.7476940e-002
-2.6081990e-002 7.6191290e-002 -3.6780200e-002
-3.9161040e-002 1.5718885e-001 -1.0580510e-002
-6.5609880e-002 7.5860010e-002 -1.6750060e-002
-7.0177600e-002 7.5663330e-002 -1.3839210e-002
-7.4291360e-002 7.4808360e-002 -9.3537900e-003
-6.3428890e-002 1.7185387e-001 -6.1412170e-002
3.0684890e-002 7.5726870e-002 -2.0778090e-002
1.9305010e-002 7.9017870e-002 -2.7743990e-002
-8.5992100e-003 7.9338730e-002 -3.7905180e-002
-2.3200110e-002 7.6568500e-002 -3.8386500e-002
-3.8117820e-002 7.6390120e-002 -1.8644360e-002
-4.4231130e-002 7.7664130e-002 -1.9026580e-002
-5.1025500e-002 7.5705070e-002 -1.8186900e-002
-7.0595130e-002 1.2994832e-001 -8.7629200e-003
2.8147660e-002 7.8785370e-002 -2.2432450e-002
7.6016000e-003 7.9435920e-002 -3.3714560e-002
4.9502400e-003 7.8027250e-002 -3.4409750e-002
-1.5858350e-002 8.1165550e-002 -3.9185590e-002
-1.8502080e-002 8.3343870e-002 -3.9010720e-002
-7.9739350e-002 1.3606854e-001 -4.1482100e-003
-3.0980180e-002 1.6634656e-001 -1.6241160e-002
-3.5749800e-002 7.7248350e-002 -1.9374020e-002
-4.8944740e-002 7.9086360e-002 -1.9575700e-002
-5.5065860e-002 7.8089190e-002 -1.9755480e-002
2.3706000e-002 8.0240410e-002 -2.5450120e-002
1.2254110e-002 8.3456700e-002 -3.0771580e-002
1.8549900e-003 8.4692790e-002 -3.4838500e-002
-2.0857000e-004 7.8941410e-002 -3.5782080e-002
-4.2710000e-004 8.2947370e-002 -3.6380660e-002
-4.4101600e-003 8.2794510e-002 -3.7467250e-002
-3.3202320e-002 1.0578320e-001 -2.0647590e-002
-3.9206970e-002 8.1536380e-002 -2.0571000e-002
-6.0355410e-002 7.9766610e-002 -1.9375540e-002
-4.1771830e-002 1.0396706e-001 -2.0832940e-002
-1.1204010e-002 8.2713320e-002 -3.8489610e-002
-2.3181500e-002 8.1686990e-002 -3.8329160e-002
-2.7233190e-002 8.0570950e-002 -3.6620670e-002
-3.5470180e-002 8.0196070e-002 -2.2325910e-002
-4.4864210e-002 8.1997900e-002 -2.0473520e-002
-5.0647890e-002 8.2309430e-002 -2.1365890e-002
-5.5522610e-002 8.1927600e-002 -2.1353790e-002
-8.8089610e-002 1.1135484e-001 1.8516150e-002
-7.2036080e-002 1.1107918e-001 4.5361400e-002
-3.3359780e-002 1.6986395e-001 -1.5448990e-002
-6.6839030e-002 6.2170510e-002 2.1576840e-002
3.0730560e-002 8.1968990e-002 -2.0040460e-002
1.6224320e-002 8.6480380e-002 -2.8952010e-002
-6.9855630e-002 1.0027892e-001 -1.4847830e-002
-6.3836170e-002 8.1704600e-002 -1.8908860e-002
-6.7914820e-002 8.0136290e-002 -1.7128200e-002
-4.5752080e-002 1.6340754e-001 -8.1780500e-003
1.1727540e-002 8.8010780e-002 -3.0860110e-002
7.3334800e-003 8.5270000e-002 -3.2829380e-002
-3.4356500e-003 8.7017890e-002 -3.6461000e-002
-2.6964110e-002 8.4512810e-002 -3.6361740e-002
-3.6553370e-002 8.5316190e-002 -2.2576200e-002
-3.8791090e-002 8.5232710e-002 -2.1917600e-002
-5.7676940e-002 8.6258340e-002 -2.1098320e-002
-6.2581810e-002 8.6394530e-002 -1.9169290e-002
-7.1395340e-002 1.2468846e-001 -8.5944200e-003
1.4801570e-002 9.9040900e-002 -2.2842920e-002
-2.1162860e-002 1.7491852e-001 -2.1977110e-002
-1.4824250e-002 8.7288840e-002 -3.8317070e-002
-2.3285750e-002 8.9468030e-002 -3.6027250e-002
-5.1595650e-002 8.4422070e-002 -2.1600960e-002
-6.9481040e-002 8.5656460e-002 -1.7198420e-002
-7.0917210e-002 1.0754846e-001 -1.1496630e-002
3.0145320e-002 8.6284000e-002 -2.0408140e-002
-5.5578110e-002 1.1567692e-001 -1.4645990e-002
-8.0981100e-003 8.9070080e-002 -3.6552200e-002
-8.1206310e-002 1.1205088e-001 -8.8299000e-004
-1.8772170e-002 8.9838040e-002 -3.6991710e-002
-2.1100420e-002 8.6587670e-002 -3.7849050e-002
-2.5809910e-002 8.8889590e-002 -3.5082250e-002
-4.8984800e-002 9.0731760e-002 -2.1817170e-002
-3.5874870e-002 3.4776000e-002 -3.0845200e-002
-3.3164390e-002 3.3606540e-002 -2.9721880e-002
-2.5964020e-002 3.3487000e-002 -2.6321120e-002
-1.6717530e-002 3.3611640e-002 -2.4625420e-002
-5.3486300e-003 3.3829010e-002 -2.2600430e-002
6.4843500e-003 3.4293000e-002 -2.0854930e-002
1.3950350e-002 3.4880000e-002 -1.8612870e-002
-4.2465980e-002 3.4189100e-002 -2.7260650e-002
-3.3241100e-002 3.3578760e-002 -2.6719450e-002
6.2813500e-003 3.4165800e-002 -1.8764230e-002
-4.4265790e-002 3.3663660e-002 -2.1914420e-002
-2.3671460e-002 3.3630970e-002 -2.3217760e-002
-1.1558580e-002 3.3895430e-002 -2.1054260e-002
-2.0406400e-003 3.4053940e-002 -1.9331070e-002
1.7323900e-003 3.4459660e-002 -1.6607870e-002
-2.7316070e-002 3.3910070e-002 -2.1353750e-002
-1.3371080e-002 3.4361580e-002 -1.9023720e-002
9.5887300e-003 3.4207220e-002 -1.5424050e-002
-1.4981540e-002 3.5878180e-002 -1.7992380e-002
-2.3474300e-003 3.5903130e-002 -1.5929740e-002
2.2544300e-003 3.6411540e-002 -1.4783970e-002
-3.5199130e-002 3.3835210e-002 -2.0508290e-002
-2.6075450e-002 3.5918600e-002 -1.9405170e-002
8.2740600e-003 3.5645200e-002 -1.2648700e-002
1.0473640e-002 3.4742600e-002 -1.1262870e-002
1.4055380e-002 3.4483430e-002 -1.4495730e-002
-3.6970520e-002 3.5680360e-002 -1.5007790e-002
-2.4719500e-003 3.8408770e-002 -1.4159030e-002
-3.9481890e-002 3.3618220e-002 -2.3612470e-002
-4.1091510e-002 3.4006000e-002 -1.1997540e-002
-3.1589810e-002 3.5592330e-002 -1.9204150e-002
-2.0086310e-002 3.8064450e-002 -1.7220790e-002
-1.1113250e-002 3.8290290e-002 -1.5646360e-002
4.4522600e-003 3.7705190e-002 -1.2957650e-002
1.5870480e-002 3.4416230e-002 -2.9666500e-003
-4.7872000e-002 3.4136300e-002 -1.5418250e-002
-4.7521640e-002 3.3622720e-002 -1.2804590e-002
-3.3407340e-002 3.7577040e-002 -1.6158190e-002
-2.7851470e-002 3.8404330e-002 -1.7210420e-002
-8.5065300e-003 3.9028950e-002 -1.3000800e-002
6.4552500e-003 3.8165190e-002 -1.0164860e-002
7.4147100e-003 3.4659190e-002 -3.0116800e-003
1.1966200e-002 3.4335400e-002 -5.9571300e-003
2.0414820e-002 3.5567580e-002 -3.7806900e-003
-1.9288780e-002 3.8762570e-002 -1.4202620e-002
-1.1390100e-003 3.9176760e-002 -1.0381370e-002
3.8149200e-003 3.9024470e-002 -8.0827300e-003
7.5208200e-003 3.6733400e-002 -6.7614300e-003
1.9968120e-002 3.4843990e-002 -1.8984900e-003
-4.5058400e-002 3.3600490e-002 -1.2527510e-002
-3.0754850e-002 3.8639810e-002 -1.4050770e-002
-5.1499810e-002 3.3729110e-002 -1.2082510e-002
-2.3756860e-002 3.8585750e-002 -1.1093270e-002
3.9734700e-003 3.8208550e-002 -3.7963500e-003
9.5485400e-003 3.4232620e-002 1.7162000e-003
2.9086550e-002 3.5799990e-002 3.5630900e-003
-5.5965200e-002 3.3529910e-002 -9.1246200e-003
-1.9523510e-002 3.8505210e-002 -4.5434500e-003
1.6363470e-002 3.4394790e-002 2.2948600e-003
2.1324740e-002 3.4624040e-002 5.6444000e-003
-3.9670300e-002 3.6174000e-002 -7.3397700e-003
-1.4251730e-002 3.8648030e-002 -4.3030400e-003
2.3262300e-003 3.5348200e-002 2.3246000e-003
1.4014300e-002 3.5703800e-002 3.8878900e-003
1.5322800e-002 3.6239700e-002 3.6628500e-003
2.3753130e-002 3.4670710e-002 3.9885300e-003
3.2369180e-002 3.5816010e-002 7.0246300e-003
-6.3715900e-002 3.3776930e-002 -8.0065600e-003
-6.4266880e-002 3.3562500e-002 -5.1253200e-003
-3.8066600e-002 3.8518600e-002 -7.3079600e-003
-9.4308800e-003 3.8887690e-002 -7.4848700e-003
3.9677800e-003 3.4200210e-002 4.9754500e-003
9.4292600e-003 3.6030400e-002 4.5275100e-003
2.9859020e-002 3.4980130e-002 9.8349300e-003
-5.2730060e-002 3.3497900e-002 -1.8117500e-003
