0.156716 -0.681378 0.05999
-0.159518 -0.681205 0.060739
-0.178311 -0.674164 0.064242
-0.199678 -0.673274 0.063093
-0.215266 -0.674819 0.065406
-0.229186 -0.680687 0.060228
-0.295596 -0.681119 0.059337
-0.312418 -0.675733 0.059857
-0.328996 -0.670374 0.05965
0.139353 -0.688368 0.060575
0.127571 -0.693167 0.061164
0.112806 -0.697317 0.062874
-0.126405 -0.695806 0.059146
-0.14284 -0.688331 0.059529
-0.247856 -0.685644 0.056138
-0.267181 -0.686266 0.058134
-0.282314 -0.685696 0.055792
0.092321 -0.705965 0.057751
0.078819 -0.709666 0.059504
0.066092 -0.712402 0.060093
0.045269 -0.715814 0.061992
-0.037855 -0.716332 0.06325
-0.055665 -0.714863 0.058775
-0.075017 -0.710338 0.060079
-0.094378 -0.704519 0.062048
-0.112437 -0.701578 0.056856
0.023798 -0.720227 0.056689
0.004239 -0.720873 0.059277
-0.013365 -0.720613 0.059363
-0.027953 -0.72012 0.057137
0.012735 0.827188 0.042555
-0.003871 0.828098 0.042972
-0.020871 0.828093 0.042085
-0.034865 0.827939 0.038195
-0.296728 0.84364 0.018222
-0.314691 0.842711 0.018262
0.078728 0.81058 0.043336
0.061754 0.81487 0.043497
0.044767 0.819815 0.043268
0.044673 0.823848 0.026416
-0.076344 0.818524 0.046245
-0.069305 0.825206 0.023067
-0.093504 0.81433 0.046655
-0.103906 0.812937 0.041268
-0.281775 0.827535 0.019879
-0.299537 0.825774 0.022964
-0.312198 0.829577 0.02189
-0.32722 0.830562 0.018812
0.112365 0.79689 0.043457
-0.136166 0.801021 0.043134
-0.267738 0.814165 0.017782
-0.282929 0.809542 0.02222
-0.296152 0.812154 0.023565
-0.311651 0.813989 0.023307
-0.324042 0.817894 0.021692
0.146258 0.777904 0.043457
-0.171344 0.786068 0.042367
-0.293282 0.796373 0.022214
-0.309804 0.79719 0.022536
-0.329091 0.799712 0.01954
0.162922 0.767579 0.043779
0.163016 0.771565 0.026923
-0.209656 0.776762 0.02828
-0.226927 0.762176 0.029152
-0.244201 0.74551 0.028329
0.346722 0.726378 0.018544
0.326615 0.727314 0.018929
0.311219 0.724596 0.017775
0.214751 0.715998 0.046108
0.214699 0.731379 0.028236
0.202795 0.732794 0.04203
-0.261073 0.728669 0.024691
0.359226 0.712322 0.019383
0.343707 0.708074 0.023072
0.330529 0.711013 0.022827
0.314323 0.711278 0.021163
0.298412 0.711641 0.01752
0.231311 0.714872 0.028745
-0.254289 0.707488 0.04792
-0.262957 0.710498 0.033338
0.348023 0.695018 0.022911
0.332668 0.695367 0.024306
0.317492 0.695852 0.022956
0.301151 0.695367 0.019746
0.244782 0.697921 0.028802
-0.264449 0.693181 0.04434
-0.278365 0.691657 0.025281
0.351103 0.679524 0.021141
0.334807 0.679722 0.022827
0.321737 0.682742 0.023099
0.24704 0.664366 0.046809
0.241342 0.683211 0.040994
0.261805 0.662174 0.030653
-0.278145 0.659973 0.043973
0.256202 0.644972 0.044717
-0.281646 0.645649 0.045586
-0.289 0.639726 0.023576
0.264962 0.610635 0.044085
-0.29188 0.606444 0.037947
0.266329 0.593554 0.04395
-0.292691 0.593505 0.042834
0.266759 0.575972 0.043532
-0.294317 0.577678 0.044489
0.265927 0.558555 0.043505
-0.295445 0.564137 0.046148
0.264678 0.542607 0.043353
-0.2983 0.546537 0.040298
-0.303922 0.542852 0.019035
0.263551 0.526787 0.043081
-0.297156 0.52658 0.042766
0.262632 0.510284 0.041691
-0.295427 0.509024 0.043389
0.262182 0.496735 0.037414
-0.293903 0.491943 0.043524
0.258672 0.478595 0.039073
-0.291534 0.474785 0.044273
0.251708 0.455578 0.046503
-0.287388 0.456359 0.046507
0.247093 0.438269 0.046353
-0.282972 0.438654 0.040791
0.243902 0.425121 0.037691
-0.276299 0.424674 0.044594
0.234832 0.406178 0.044032
-0.268653 0.410205 0.048402
0.225274 0.387374 0.040559
-0.25881 0.390947 0.04459
0.570434 0.345142 0.043479
0.555258 0.350309 0.042493
0.218234 0.376894 0.045868
-0.247867 0.37197 0.042203
0.585413 0.333328 0.047484
0.538746 0.348707 0.043246
0.521741 0.343033 0.04343
0.206007 0.358884 0.04084
-0.237811 0.36067 0.047688
0.50484 0.335129 0.04304
0.488137 0.327936 0.042186
0.474514 0.322797 0.039173
0.191317 0.340134 0.043608
-0.225509 0.344208 0.047183
-0.526004 0.329783 0.020821
-0.541135 0.329931 0.023796
-0.5574 0.326149 0.025858
0.439002 0.308642 0.045948
0.178145 0.322801 0.046214
-0.210785 0.324772 0.042267
-0.492299 0.314316 0.022328
-0.510218 0.319627 0.026265
0.62004 0.286557 0.04611
0.608676 0.30596 0.038233
0.417658 0.301432 0.040971
0.396719 0.294087 0.043492
0.406863 0.299309 0.025939
0.382122 0.289259 0.045579
0.372431 0.287476 0.040001
0.168246 0.305304 0.052024
-0.200678 0.306304 0.035758
-0.458407 0.29737 0.022328
-0.476368 0.303018 0.026653
-0.588445 0.296497 0.048996
0.337435 0.27492 0.045312
0.320612 0.270645 0.04046
0.172341 0.28723 0.042423
-0.424364 0.280396 0.023819
-0.442475 0.286114 0.026949
-0.59965 0.285796 0.045168
0.289024 0.257738 0.042429
0.197429 0.257909 0.043618
-0.373509 0.263414 0.021184
-0.391356 0.268772 0.022557
-0.41103 0.269373 0.031052
-0.614294 0.268338 0.040298
0.648906 0.23703 0.04905
0.640897 0.254161 0.039842
0.247638 0.243465 0.048205
0.2554 0.252284 0.027867
0.228315 0.243908 0.049539
0.234177 0.250559 0.030641
-0.321905 0.244338 0.021183
-0.337137 0.24718 0.024321
-0.357681 0.252352 0.026954
-0.626355 0.250872 0.04074
-0.226411 0.239433 0.042012
-0.245698 0.228653 0.040437
-0.242153 0.235835 0.025753
-0.289098 0.231141 0.023926
-0.306712 0.234618 0.02669
-0.63602 0.236243 0.047923
0.665767 0.203141 0.048372
0.658435 0.22102 0.039381
-0.644691 0.221177 0.038902
-0.653706 0.204527 0.048321
0.675666 0.17066 0.048453
0.671796 0.187848 0.039
-0.660248 0.191704 0.04143
-0.665652 0.174879 0.043778
-0.670138 0.168424 0.024478
0.67332 0.159556 0.041056
-0.668169 0.159637 0.03927
0.667492 0.147387 0.043792
0.655258 0.136353 0.044756
-0.650727 0.136935 0.042511
-0.66296 0.14812 0.042071
0.642283 0.129372 0.047134
0.624104 0.125943 0.042664
0.603853 0.118016 0.047351
0.583579 0.115906 0.043903
0.568164 0.11478 0.040457
-0.617888 0.118486 0.042585
-0.634892 0.127529 0.042556
0.55733 0.109649 0.046484
0.541358 0.107545 0.043869
0.518635 0.102185 0.042104
0.498747 0.09728 0.03882
-0.583709 0.103417 0.042506
-0.600861 0.110894 0.042625
0.485079 0.091679 0.042246
0.468213 0.085791 0.043295
0.451002 0.080083 0.043591
-0.532214 0.085778 0.042312
-0.549954 0.090689 0.042152
-0.566735 0.096912 0.042291
0.433831 0.0743 0.043658
0.417432 0.068739 0.044559
0.405005 0.065323 0.048008
0.391316 0.058781 0.046025
-0.447455 0.065004 0.043206
-0.464872 0.069626 0.043789
-0.481715 0.072135 0.043726
-0.497648 0.074634 0.04295
-0.514326 0.079891 0.042285
0.377049 0.046224 0.049497
-0.414414 0.049706 0.041707
-0.430809 0.058251 0.04217
0.370618 0.029878 0.049829
-0.398249 0.035852 0.040323
0.372962 0.014206 0.043412
-0.385749 0.018661 0.045362
-0.380991 0.004207 0.049847
0.380295 -0.016843 0.044475
-0.383906 -0.014217 0.047375
-0.391694 -0.020612 0.024579
0.384461 -0.034001 0.043322
0.392619 -0.054858 0.031121
0.389041 -0.051566 0.043833
-0.394834 -0.05263 0.039645
-0.395519 -0.063738 0.045234
0.39694 -0.084356 0.043802
-0.400055 -0.081948 0.041165
-0.40599 -0.084998 0.019686
0.398808 -0.101114 0.043457
-0.401132 -0.100782 0.047781
-0.407178 -0.104172 0.02695
0.399592 -0.118061 0.043457
0.399828 -0.135007 0.043457
0.400354 -0.152021 0.043389
0.401477 -0.169129 0.043416
-0.41034 -0.173403 0.038954
0.40794 -0.186882 0.027169
0.403329 -0.186169 0.04351
-0.410407 -0.186613 0.041587
0.404952 -0.203506 0.042937
-0.410443 -0.20282 0.042981
0.405164 -0.223082 0.04127
-0.41023 -0.219739 0.043457
0.402284 -0.24135 0.047798
-0.409759 -0.236686 0.043457
0.401922 -0.254933 0.044586
0.400896 -0.271005 0.043326
0.399456 -0.287098 0.043587
0.567078 -0.33297 0.045268
0.398282 -0.303238 0.041942
-0.403686 -0.304377 0.043551
-0.530406 -0.328891 0.047657
-0.549372 -0.327848 0.044674
0.578865 -0.341336 0.050244
0.551342 -0.330872 0.040052
0.532219 -0.3362 0.042994
0.54201 -0.331972 0.025864
0.397846 -0.316624 0.037645
-0.40073 -0.321162 0.043578
-0.502029 -0.343965 0.041126
-0.513161 -0.334933 0.047758
-0.564689 -0.332261 0.042604
0.517311 -0.344888 0.046687
0.50735 -0.349927 0.040928
0.395148 -0.334441 0.040334
-0.397993 -0.338135 0.044044
-0.482577 -0.355069 0.042272
-0.574827 -0.339639 0.039432
0.585622 -0.351629 0.041094
0.390408 -0.355347 0.050747
-0.398215 -0.354638 0.046595
-0.444892 -0.376269 0.037803
-0.460604 -0.36788 0.041097
-0.58631 -0.354062 0.043311
-0.590811 -0.360145 0.023413
0.600719 -0.389042 0.049101
0.593185 -0.369233 0.041132
0.472888 -0.372381 0.045366
0.456801 -0.381181 0.039668
0.395173 -0.371802 0.045021
-0.40307 -0.368759 0.053445
-0.415405 -0.377152 0.046805
-0.430929 -0.378631 0.042117
-0.597133 -0.372018 0.037409
0.419061 -0.395208 0.050172
0.422382 -0.386573 0.028664
-0.604743 -0.388413 0.047035
0.604129 -0.401861 0.040674
-0.612861 -0.404629 0.038092
0.617665 -0.439881 0.049101
0.610414 -0.420153 0.041078
-0.621226 -0.422212 0.04712
-0.629608 -0.438603 0.037904
0.621075 -0.4527 0.040674
-0.637966 -0.456549 0.047183
0.634612 -0.49072 0.049101
0.627361 -0.470992 0.041078
-0.645897 -0.474127 0.037763
-0.652933 -0.490941 0.04799
0.638022 -0.50354 0.040674
-0.656239 -0.504476 0.041804
0.651558 -0.541559 0.049101
0.644307 -0.521831 0.041078
-0.656322 -0.519685 0.046532
-0.601818 -0.548656 0.040221
-0.622344 -0.546674 0.044071
-0.637109 -0.54485 0.048051
-0.647351 -0.534712 0.045427
0.654406 -0.554282 0.040448
-0.549299 -0.569134 0.044209
-0.565681 -0.561287 0.043644
-0.582869 -0.554194 0.042676
0.657284 -0.58893 0.041954
0.657939 -0.571453 0.039218
-0.532672 -0.57752 0.043702
-0.497184 -0.596943 0.045646
-0.51508 -0.587433 0.043594
0.64979 -0.600582 0.04212
0.636603 -0.607751 0.043989
0.618518 -0.61301 0.047979
0.536461 -0.613515 0.042502
0.518922 -0.611772 0.043456
0.501594 -0.612703 0.043524
0.484621 -0.616381 0.043362
-0.457251 -0.614459 0.044563
-0.477242 -0.605948 0.048293
0.597499 -0.617899 0.043938
0.582758 -0.620879 0.03959
0.569934 -0.62079 0.04194
0.55373 -0.617299 0.041718
0.467894 -0.621292 0.043268
0.451065 -0.626692 0.043497
0.433615 -0.632409 0.044361
-0.424206 -0.631811 0.047382
-0.439214 -0.623048 0.044253
0.415906 -0.638356 0.045217
0.402134 -0.642997 0.04732
0.387601 -0.648869 0.044066
-0.393988 -0.647104 0.044398
-0.410629 -0.638419 0.044468
0.367996 -0.656595 0.041732
0.346356 -0.663791 0.045951
-0.361476 -0.661351 0.043645
-0.377827 -0.654416 0.04421
0.325776 -0.671953 0.044042
0.313286 -0.676645 0.044076
0.299795 -0.680095 0.045374
0.229653 -0.679197 0.042842
0.210578 -0.674287 0.047214
0.189633 -0.675665 0.044813
0.177984 -0.678326 0.043745
0.166467 -0.682717 0.043582
-0.176406 -0.681826 0.044143
-0.194827 -0.678973 0.044855
-0.215247 -0.6809 0.046904
-0.311018 -0.681066 0.043241
-0.32787 -0.674821 0.043336
-0.344655 -0.668005 0.043362
0.278265 -0.685402 0.040191
0.258247 -0.68542 0.04151
0.243029 -0.683462 0.038873
0.149015 -0.689667 0.043927
0.129093 -0.697272 0.046079
-0.142208 -0.695291 0.04308
-0.159007 -0.687977 0.043497
-0.235104 -0.686827 0.042703
-0.249745 -0.690867 0.038857
-0.262958 -0.691138 0.041923
-0.279022 -0.690084 0.042515
-0.294802 -0.686587 0.042717
0.107885 -0.706457 0.041192
0.093591 -0.710913 0.043215
0.079477 -0.714278 0.045276
-0.071288 -0.716858 0.046043
-0.089511 -0.71417 0.041048
-0.108844 -0.708155 0.042694
-0.125813 -0.701861 0.04269
0.057286 -0.720143 0.040668
0.036697 -0.723263 0.041968
0.021547 -0.725573 0.038845
0.008112 -0.725473 0.042142
-0.008717 -0.725313 0.04304
-0.025623 -0.724744 0.043176
-0.043518 -0.721815 0.045451
-0.060867 -0.720583 0.040949
-0.263107 0.894456 0.00125
-0.282935 0.897629 0.002522
-0.300783 0.898523 0.002919
-0.318249 0.89835 0.002719
-0.335482 0.897184 0.001976
-0.350207 0.894017 0.001169
-0.247384 0.877881 0.003313
-0.264223 0.877592 0.007142
-0.277537 0.881025 0.007738
-0.294954 0.881062 0.00839
-0.313115 0.881102 0.008233
-0.330582 0.881388 0.007238
-0.347238 0.880877 0.005812
-0.363153 0.880944 0.002618
-0.231472 0.861045 0.003653
-0.24768 0.860823 0.007946
-0.260272 0.864693 0.009254
-0.272737 0.868045 0.010232
-0.287468 0.864573 0.01245
-0.308987 0.860966 0.013581
-0.32843 0.864061 0.010948
-0.345686 0.86467 0.009041
-0.36248 0.864643 0.006521
-0.379176 0.864738 0.002394
0.027978 0.827896 0.026322
0.011251 0.82981 0.026416
-0.005534 0.830268 0.026255
-0.021907 0.830044 0.025367
-0.037947 0.829349 0.024304
-0.051536 0.828588 0.021108
-0.2179 0.846179 0.003025
-0.231869 0.84428 0.007542
-0.244106 0.848024 0.009313
-0.256586 0.851894 0.010815
-0.273443 0.850877 0.014097
-0.327959 0.846483 0.015005
-0.344857 0.847522 0.011742
-0.362068 0.847818 0.008926
-0.379082 0.847885 0.005564
-0.39584 0.848114 -0.000285
0.094943 0.807336 0.026537
0.078127 0.813601 0.026698
0.061431 0.819015 0.026604
0.061113 0.821738 0.009685
-0.092174 0.818523 0.02976
-0.083262 0.824219 0.009329
-0.109486 0.81361 0.030062
-0.228388 0.830697 0.008224
-0.241206 0.835086 0.010294
-0.25841 0.834853 0.014103
-0.34379 0.83032 0.014736
-0.361521 0.83032 0.010563
-0.378947 0.830804 0.007032
-0.396028 0.831006 0.001831
0.129244 0.791096 0.026443
0.112074 0.800129 0.026376
-0.125414 0.809669 0.023632
-0.146827 0.802714 0.025715
-0.138345 0.810988 0.005457
-0.194246 0.810545 0.008096
-0.212861 0.808277 0.009686
-0.227568 0.813091 0.009583
-0.246554 0.817565 0.012644
-0.339106 0.814352 0.017412
-0.359637 0.810827 0.012178
-0.378154 0.813374 0.007817
-0.395333 0.813925 0.00265
0.345846 0.792681 0.001359
0.325946 0.795167 0.000861
0.310563 0.793981 0.000368
0.146258 0.78214 0.02651
-0.165104 0.795809 0.027232
-0.181794 0.790049 0.027614
-0.177296 0.802087 0.015044
-0.196108 0.786642 0.025314
-0.191116 0.795931 0.017869
-0.207859 0.793449 0.01621
-0.226877 0.795538 0.012249
-0.244134 0.797655 0.01222
-0.261327 0.798435 0.015959
-0.277609 0.797248 0.019923
-0.350353 0.796123 0.014519
-0.365359 0.79344 0.010531
-0.37741 0.796656 0.007848
-0.393513 0.797073 0.002818
0.379794 0.776511 0.001767
0.35929 0.778428 0.005016
0.344175 0.775408 0.007637
0.330287 0.77853 0.006976
0.31331 0.779671 0.005925
0.295072 0.781801 0.002712
0.277741 0.776634 0.001524
0.179084 0.76035 0.028241
-0.226285 0.778847 0.018503
-0.243577 0.780088 0.013811
-0.260371 0.781525 0.013844
-0.273363 0.784651 0.016432
-0.288041 0.781202 0.018652
-0.305221 0.780301 0.019145
-0.323315 0.780005 0.017534
-0.344213 0.777311 0.013774
-0.362713 0.779996 0.009986
-0.375186 0.783544 0.007709
0.395875 0.75977 0.003268
0.379556 0.759105 0.00734
0.366341 0.762404 0.008438
0.349875 0.762077 0.010002
0.33291 0.761566 0.010737
0.315538 0.762319 0.009955
0.298003 0.76323 0.008178
0.28073 0.763149 0.006237
0.264725 0.764072 0.003265
0.196078 0.746576 0.030475
-0.24351 0.762929 0.018789
-0.26082 0.763866 0.013793
-0.279432 0.766634 0.014457
-0.299796 0.76396 0.015048
-0.317321 0.763247 0.014777
-0.334472 0.762355 0.012743
-0.348449 0.759778 0.01008
-0.360861 0.763439 0.008468
-0.378748 0.76648 0.003924
0.409613 0.745086 0.002884
0.395298 0.742751 0.007601
0.383154 0.746264 0.009188
0.371104 0.74957 0.01033
0.356944 0.746582 0.012916
0.33872 0.744906 0.0148
0.317824 0.742529 0.014367
0.299165 0.745655 0.011311
0.282044 0.746691 0.009321
0.265424 0.748013 0.00777
0.247391 0.751493 0.005119
0.228859 0.751932 0.00382
0.21124 0.748682 0.011562
-0.260497 0.746301 0.01778
-0.277672 0.747014 0.012741
-0.295242 0.747175 0.01152
-0.312224 0.747242 0.011101
-0.328368 0.747013 0.00998
-0.344341 0.746808 0.008377
-0.35698 0.74992 0.007056
0.39862 0.729143 0.008757
0.385903 0.733338 0.010721
0.369356 0.73282 0.014178
0.29852 0.728225 0.014588
0.282716 0.730175 0.011822
0.266644 0.731729 0.011125
0.252439 0.735626 0.010566
0.233588 0.734761 0.014667
-0.27652 0.730094 0.014956
-0.292677 0.730524 0.01035
-0.309296 0.730897 0.00844
-0.32291 0.733871 0.007919
0.427033 0.711023 0.002703
0.412386 0.707811 0.007588
0.399117 0.711699 0.010037
0.380449 0.715756 0.014144
0.282483 0.713488 0.014742
0.269083 0.717783 0.013584
0.251214 0.717685 0.017088
-0.277222 0.7127 0.019223
-0.289605 0.716828 0.011365
0.415352 0.694466 0.007119
0.399369 0.694601 0.010448
0.382789 0.695882 0.014536
0.365085 0.696044 0.018965
0.28385 0.695976 0.01755
0.2646 0.69964 0.018864
-0.295221 0.698491 0.00907
0.416836 0.678327 0.006348
0.400109 0.678233 0.009722
0.383467 0.67865 0.013066
0.36722 0.679456 0.01705
0.306854 0.679093 0.020139
0.288905 0.678156 0.018325
0.2713 0.679192 0.020973
0.254609 0.680375 0.029791
-0.28374 0.672516 0.023547
-0.292227 0.677203 0.009755
0.400454 0.661475 0.008231
0.383467 0.661703 0.011136
0.366938 0.662766 0.014454
0.354117 0.666139 0.017775
0.338721 0.663421 0.018929
0.318711 0.664533 0.01881
0.296155 0.658612 0.017142
0.27743 0.660954 0.021048
-0.282927 0.659011 0.03174
-0.290565 0.656849 0.011489
0.400799 0.644716 0.00605
0.383915 0.644622 0.008749
0.366489 0.645106 0.01102
0.347489 0.648067 0.014251
0.326271 0.64564 0.014879
0.307733 0.643923 0.014253
0.293306 0.640094 0.015047
0.281427 0.643295 0.020246
0.26805 0.644434 0.030209
0.385525 0.6282 0.005326
0.368094 0.627366 0.00744
0.349946 0.627756 0.00935
0.331632 0.62816 0.010605
0.313404 0.627461 0.011493
0.297036 0.626681 0.013683
0.28325 0.626681 0.019511
0.27161 0.627326 0.029783
-0.292172 0.622256 0.021484
0.335043 0.610778 0.00624
0.317277 0.610218 0.007653
0.299645 0.609801 0.0111
0.284712 0.610178 0.018419
0.273397 0.610474 0.029582
-0.293296 0.609415 0.025263
0.285374 0.592116 0.015374
0.274043 0.592945 0.028633
-0.294803 0.594479 0.0275
0.272909 0.57244 0.025494
-0.295903 0.581552 0.031454
0.26772 0.55444 0.030598
-0.299198 0.563706 0.028882
-0.304765 0.556061 0.005575
0.266432 0.540784 0.028366
0.26505 0.525083 0.027443
-0.302099 0.526736 0.024878
0.264243 0.509575 0.025681
-0.299394 0.509566 0.026246
0.263247 0.493983 0.024214
-0.296368 0.492302 0.026376
0.26186 0.480256 0.02113
-0.294084 0.47505 0.0269
0.25708 0.461564 0.024005
-0.291044 0.458052 0.028124
0.250409 0.441651 0.03245
-0.286729 0.44391 0.030369
0.247437 0.42869 0.02361
-0.28065 0.42651 0.0257
0.240282 0.411011 0.022608
-0.270833 0.408187 0.033039
0.230133 0.39086 0.025966
-0.263282 0.391365 0.023352
0.569918 0.346938 0.026707
0.553536 0.350791 0.026416
0.217995 0.371061 0.027842
-0.253328 0.377506 0.030981
0.585458 0.336085 0.02829
0.536653 0.348124 0.02651
0.519706 0.342318 0.02651
0.205751 0.352989 0.022949
-0.241495 0.360414 0.031312
0.598263 0.321503 0.032311
0.502858 0.334731 0.026254
0.486589 0.328167 0.025609
0.470494 0.32198 0.025811
0.195704 0.340147 0.026841
-0.226264 0.341069 0.027639
-0.513254 0.332699 0.008165
0.453298 0.315453 0.026698
0.435821 0.309317 0.025872
0.422283 0.304627 0.022226
0.184477 0.323927 0.029142
-0.212364 0.323039 0.023753
-0.479146 0.316011 0.009026
-0.573872 0.316629 0.025724
0.620508 0.291139 0.024275
0.614673 0.303166 0.012125
0.609195 0.30886 0.023377
0.386905 0.292834 0.028846
0.368832 0.287876 0.02578
0.175782 0.306551 0.033922
-0.202401 0.305667 0.017813
-0.445186 0.299087 0.009093
-0.588155 0.30133 0.03436
0.631618 0.271394 0.032136
0.349576 0.282603 0.023402
0.328839 0.276132 0.026623
0.338707 0.28002 0.008999
0.313848 0.270897 0.029277
0.184405 0.278091 0.025142
0.178355 0.293046 0.023858
-0.197554 0.288909 0.026528
-0.390531 0.279413 0.005497
-0.408187 0.281967 0.011516
-0.600282 0.28765 0.027407
0.29893 0.266295 0.02392
0.279143 0.259313 0.025993
0.288607 0.264548 0.008962
0.267183 0.255425 0.026698
0.214483 0.255733 0.027281
0.197929 0.264494 0.026214
0.198179 0.2698 0.008415
-0.199881 0.272111 0.034526
-0.36031 0.265355 0.008878
-0.611401 0.271792 0.020812
0.650347 0.238279 0.030474
0.642271 0.255354 0.02172
-0.212468 0.256651 0.024965
-0.227765 0.245071 0.021911
-0.21988 0.252455 0.008479
-0.30936 0.245753 0.008794
-0.621776 0.257668 0.029293
-0.260721 0.228289 0.029956
-0.252728 0.236988 0.010419
-0.278039 0.226299 0.030388
-0.273292 0.234321 0.012853
-0.632952 0.240316 0.029065
0.6656 0.206043 0.028331
0.66052 0.215191 0.010782
0.65856 0.223943 0.02324
-0.644388 0.2215 0.021462
-0.654321 0.20489 0.032123
0.669873 0.190774 0.024152
-0.663024 0.18788 0.027753
0.67158 0.174237 0.029304
0.66565 0.157484 0.028834
-0.669718 0.152892 0.030115
0.656862 0.145935 0.03194
0.638477 0.139743 0.028652
0.618615 0.13379 0.02606
-0.663031 0.142303 0.028164
0.607889 0.127411 0.032167
0.592865 0.125637 0.030212
0.575568 0.124322 0.028413
0.554249 0.12091 0.027631
0.531326 0.11503 0.026674
0.515075 0.11229 0.022648
-0.633534 0.120607 0.026389
-0.649888 0.130847 0.027021
0.501087 0.105554 0.024973
0.48481 0.098427 0.025568
-0.581816 0.098852 0.026013
-0.599098 0.104961 0.026349
-0.616363 0.11247 0.026322
0.468441 0.091706 0.026308
0.451616 0.085201 0.026564
0.434508 0.077974 0.026537
-0.526898 0.082476 0.023533
-0.546008 0.088013 0.025686
-0.564111 0.093181 0.025717
0.417105 0.070523 0.027155
0.399395 0.061536 0.030299
-0.463258 0.06571 0.027788
-0.479262 0.069366 0.028702
-0.492411 0.071897 0.031029
-0.507274 0.076158 0.026819
0.382995 0.047797 0.029671
-0.414781 0.042458 0.024977
-0.430365 0.052526 0.026093
-0.446908 0.060097 0.026739
0.374739 0.032369 0.03441
-0.404424 0.030454 0.021474
0.377976 0.00202 0.030245
0.377735 0.014244 0.015688
0.375572 0.019507 0.026386
-0.394484 0.017295 0.026367
-0.388187 0.000593 0.033841
-0.394649 -0.002809 0.011484
0.383059 -0.016789 0.026802
0.388554 -0.036752 0.024539
-0.395149 -0.037877 0.024021
-0.396028 -0.047959 0.029844
0.396467 -0.068122 0.028559
-0.39998 -0.064494 0.028717
-0.405093 -0.070115 0.006679
0.39909 -0.084262 0.027075
0.400377 -0.101114 0.02651
0.400455 -0.118061 0.02651
-0.410317 -0.122494 0.021777
0.400881 -0.135142 0.026376
-0.410452 -0.135908 0.024775
0.402336 -0.152666 0.026147
-0.410779 -0.152693 0.026398
0.408665 -0.173564 0.014067
0.405344 -0.170191 0.026887
-0.411528 -0.170191 0.026134
-0.412178 -0.186747 0.02556
0.409964 -0.203344 0.025336
-0.412348 -0.202981 0.026165
0.410879 -0.219286 0.020333
-0.412348 -0.219739 0.02651
0.406409 -0.237883 0.031814
-0.412113 -0.236686 0.02651
0.405211 -0.256713 0.025731
-0.411642 -0.253632 0.02651
0.402012 -0.274786 0.031206
-0.411171 -0.270578 0.02651
0.401047 -0.288009 0.028254
-0.410387 -0.287525 0.02651
0.566991 -0.33251 0.028003
0.556275 -0.328752 0.022669
0.399993 -0.303503 0.025802
-0.408755 -0.304283 0.026855
-0.538733 -0.332996 0.028915
-0.55525 -0.332294 0.028678
0.578076 -0.341027 0.034266
0.398976 -0.319293 0.024473
-0.405457 -0.320517 0.027461
-0.518426 -0.339985 0.029998
-0.567742 -0.335766 0.030271
0.522456 -0.340769 0.029162
0.504556 -0.350445 0.026556
0.39853 -0.333103 0.02254
-0.402204 -0.337131 0.027393
-0.486282 -0.360873 0.022467
-0.499775 -0.351284 0.025867
-0.57767 -0.344922 0.026639
0.586249 -0.354704 0.027011
0.487292 -0.361164 0.026658
0.397506 -0.351849 0.028622
-0.401119 -0.354095 0.029074
-0.453583 -0.376643 0.024591
-0.471276 -0.367751 0.025293
0.598795 -0.387902 0.032302
0.592734 -0.371507 0.021277
0.470064 -0.371938 0.02608
0.453489 -0.38107 0.024887
0.439654 -0.385762 0.022632
0.406193 -0.372825 0.023734
-0.405387 -0.36849 0.035768
-0.4167 -0.37803 0.028397
-0.433698 -0.381893 0.022152
-0.598962 -0.372757 0.026187
-0.605828 -0.386436 0.028209
-0.610022 -0.392234 0.008711
0.60413 -0.404849 0.026653
-0.613983 -0.402516 0.023282
0.615742 -0.438742 0.032302
0.609725 -0.422347 0.021367
-0.622294 -0.420184 0.027459
-0.626977 -0.426767 0.007639
-0.630745 -0.436769 0.02277
0.621077 -0.455688 0.026653
-0.638896 -0.455006 0.026643
-0.641574 -0.460983 0.006302
0.632688 -0.489581 0.032302
0.626672 -0.473186 0.021367
-0.646451 -0.47501 0.019647
-0.651814 -0.493233 0.029427
0.638023 -0.506527 0.026653
-0.653411 -0.509539 0.031738
0.649556 -0.54042 0.032302
0.643618 -0.524025 0.021367
-0.645881 -0.520587 0.026435
-0.566255 -0.550139 0.026375
-0.583211 -0.543135 0.024932
-0.596383 -0.537646 0.022392
-0.611149 -0.537371 0.026613
-0.63054 -0.533683 0.029744
0.653721 -0.556936 0.026438
-0.535559 -0.567349 0.030169
-0.549298 -0.557862 0.027524
0.655972 -0.584692 0.027624
0.655775 -0.572338 0.020001
-0.517208 -0.575232 0.024232
-0.484167 -0.598034 0.031889
-0.498254 -0.587944 0.027442
0.649543 -0.597187 0.023541
0.636634 -0.606601 0.026393
0.620774 -0.611548 0.028285
0.539325 -0.613206 0.022679
0.519586 -0.611394 0.025672
0.5022 -0.612075 0.026443
0.485186 -0.615549 0.02651
-0.44918 -0.614472 0.026944
-0.468038 -0.604667 0.028477
0.605801 -0.615344 0.031082
0.588674 -0.617852 0.025388
0.574299 -0.620656 0.029905
0.560071 -0.617775 0.026649
0.46824 -0.620727 0.02651
0.451293 -0.626455 0.02651
0.434212 -0.632686 0.026644
-0.426858 -0.626996 0.027266
0.416746 -0.639299 0.027357
0.397702 -0.64699 0.029929
-0.390366 -0.648183 0.030609
-0.405591 -0.639056 0.027987
0.377712 -0.655445 0.027311
0.366086 -0.660256 0.026784
0.354085 -0.665064 0.02675
-0.359311 -0.662999 0.026698
-0.376466 -0.654447 0.02729
0.334214 -0.6731 0.024797
0.31249 -0.680324 0.028678
0.229904 -0.683472 0.025744
0.213164 -0.679251 0.026998
0.194949 -0.67874 0.027725
0.175962 -0.682304 0.029335
-0.193097 -0.682236 0.026779
-0.210886 -0.683198 0.027196
-0.32558 -0.678087 0.026537
-0.342396 -0.670688 0.026698
0.291678 -0.686938 0.025542
0.275969 -0.690761 0.021996
0.262398 -0.690054 0.025021
0.245972 -0.687652 0.02538
0.156636 -0.690048 0.027115
0.138731 -0.698006 0.02721
-0.141926 -0.700171 0.026416
-0.158778 -0.692671 0.02651
-0.175792 -0.686025 0.026577
-0.228805 -0.687054 0.026873
-0.245738 -0.691288 0.025838
-0.261416 -0.693003 0.026053
-0.276726 -0.692346 0.027156
-0.29226 -0.689983 0.027156
-0.308602 -0.684615 0.026537
0.121618 -0.705136 0.026854
0.10771 -0.711104 0.023716
0.091805 -0.71512 0.028135
-0.108404 -0.713005 0.025469
-0.125101 -0.706975 0.026161
0.071237 -0.721138 0.025519
0.055574 -0.724969 0.022065
0.041794 -0.725895 0.025146
0.025283 -0.726844 0.025448
0.009283 -0.72736 0.025609
-0.006987 -0.727461 0.026255
-0.023906 -0.727205 0.02655
-0.041127 -0.726343 0.026789
-0.05862 -0.724866 0.026804
-0.077096 -0.721228 0.028269
-0.094887 -0.718117 0.022754
-0.2589 0.921724 -0.014567
-0.277276 0.928698 -0.016781
-0.297604 0.929231 -0.014954
-0.315882 0.928675 -0.014981
-0.334042 0.926351 -0.015275
-0.34902 0.92357 -0.015943
-0.229436 0.909856 -0.016999
-0.245689 0.914637 -0.012554
-0.256381 0.909816 -0.006096
-0.271549 0.912552 -0.005105
-0.289557 0.91453 -0.004835
-0.30753 0.914775 -0.004423
-0.325444 0.913647 -0.004744
-0.345365 0.910555 -0.005849
-0.364191 0.913901 -0.013749
-0.380809 0.909541 -0.018317
-0.215567 0.896391 -0.015658
-0.227512 0.898347 -0.009691
-0.24187 0.899346 -0.00526
-0.363305 0.897124 -0.003517
-0.379793 0.897591 -0.009636
-0.394531 0.897207 -0.017989
-0.225191 0.883272 -0.004919
-0.379431 0.881563 -0.002589
-0.395322 0.881751 -0.009482
-0.409124 0.881482 -0.019023
-0.194191 0.863678 -0.01337
-0.21137 0.864078 -0.003876
-0.395495 0.865087 -0.003723
-0.410056 0.865733 -0.011968
0.044104 0.826916 0.009591
0.027287 0.829763 0.009752
0.010592 0.83094 0.009658
-0.006166 0.83094 0.009469
-0.022763 0.830806 0.00912
-0.038916 0.830349 0.008326
-0.054709 0.829442 0.007496
-0.067842 0.828254 0.005001
-0.183244 0.846709 -0.013243
-0.199883 0.846792 -0.003757
-0.411204 0.849176 -0.007884
-0.421171 0.852388 -0.016226
0.349818 0.820489 -0.015408
0.332558 0.823891 -0.018316
0.093549 0.810095 0.01033
0.077454 0.816092 0.010398
-0.104366 0.817868 0.012018
-0.120157 0.814395 0.005088
-0.188036 0.829843 -0.002342
-0.209192 0.826851 0.00456
-0.412177 0.831652 -0.005804
-0.426738 0.834224 -0.017888
0.381668 0.80977 -0.016058
0.36383 0.813934 -0.012553
0.353071 0.808019 -0.006026
0.33739 0.810087 -0.00623
0.315244 0.811449 -0.010011
0.293823 0.810489 -0.013788
0.277977 0.807995 -0.016893
0.128697 0.793086 0.008945
0.110845 0.802602 0.009201
0.10639 0.804986 -0.006862
-0.159313 0.806944 0.010873
-0.154071 0.817726 -0.008208
-0.174032 0.815698 0.001799
-0.411798 0.814127 -0.004569
-0.426487 0.814611 -0.015187
0.414175 0.793155 -0.017047
0.397542 0.798625 -0.012963
0.38599 0.793508 -0.006024
0.367515 0.797222 -0.003272
0.299963 0.799006 -0.003838
0.282004 0.793796 -0.005576
0.26179 0.796713 -0.014254
0.244648 0.791092 -0.017159
0.162855 0.774775 0.010227
0.146029 0.784156 0.009523
-0.410072 0.797046 -0.004243
-0.425026 0.797207 -0.014237
0.426715 0.779498 -0.01557
0.415871 0.780497 -0.009632
0.401551 0.781649 -0.005249
0.264578 0.779996 -0.003068
0.248527 0.78019 -0.008123
0.23225 0.778817 -0.014242
0.179088 0.765761 0.01198
-0.388932 0.781116 0.002849
-0.40564 0.780328 -0.004199
0.417199 0.765392 -0.005092
0.252325 0.767855 -0.000787
0.237365 0.765263 -0.003129
0.216555 0.764568 -0.006873
0.192583 0.756216 0.015625
0.195796 0.761459 0.000546
-0.398241 0.763798 -0.004064
-0.41466 0.763408 -0.01421
0.444338 0.745951 -0.014165
0.427896 0.745965 -0.004176
-0.370676 0.747959 0.002668
-0.388158 0.747013 -0.00406
0.436705 0.728615 -0.004087
0.417005 0.725871 0.003943
-0.337783 0.730932 0.005151
-0.357392 0.733093 0.001685
-0.376508 0.730803 -0.004425
0.457601 0.711467 -0.015228
0.443275 0.711951 -0.004524
-0.304701 0.714445 0.00675
-0.324327 0.716342 0.002679
-0.346104 0.712145 -0.003187
-0.364588 0.717197 -0.006256
0.447604 0.694655 -0.005568
0.431648 0.695045 0.002089
-0.31542 0.698025 -0.00027
-0.331262 0.700105 -0.004795
0.448579 0.67713 -0.007335
0.433318 0.678192 0.000421
0.433746 0.661219 -0.001919
0.4174 0.661474 0.004308
0.433917 0.644259 -0.00681
0.417562 0.644555 0.000612
-0.292761 0.639112 0.005577
0.418223 0.627491 -0.004963
0.401781 0.628294 0.00145
-0.293052 0.625278 0.00794
0.402424 0.611945 -0.005408
0.389007 0.614823 -0.000187
0.373493 0.611086 0.001243
0.353269 0.608145 0.003098
-0.294547 0.609671 0.009836
0.363358 0.59436 -0.00512
0.348468 0.591572 -0.003688
0.33862 0.596944 0.000321
0.323854 0.594252 0.000412
0.302891 0.590071 0.00337
-0.295801 0.597062 0.014528
0.284529 0.573548 0.006827
-0.298988 0.579361 0.01372
-0.302267 0.570237 -0.007229
0.272282 0.554288 0.013453
0.267478 0.537171 0.015185
-0.307969 0.538727 0.003962
0.266317 0.523815 0.011975
-0.306684 0.526544 0.008304
0.265218 0.508405 0.01046
-0.303324 0.511185 0.009788
0.264066 0.492965 0.008609
-0.29933 0.493831 0.009076
-0.302069 0.499579 -0.007291
0.262037 0.476436 0.007228
-0.295744 0.475876 0.0093
0.258237 0.458924 0.00387
-0.292675 0.458848 0.011169
0.252781 0.442529 0.015432
-0.287508 0.440356 0.013294
0.24761 0.4257 0.009455
-0.281256 0.422477 0.007848
-0.284653 0.43033 -0.005078
0.241484 0.408834 0.003412
-0.272781 0.407889 0.014688
0.234935 0.395229 0.011585
-0.264491 0.390919 0.00539
0.568932 0.347498 0.009913
0.552626 0.349913 0.009752
0.223568 0.376285 0.007225
-0.25351 0.374688 0.016493
0.584719 0.33912 0.010595
0.535863 0.346138 0.00959
0.51885 0.339978 0.009523
0.209565 0.355999 0.009188
-0.240987 0.357276 0.012576
-0.531595 0.339392 0.005452
-0.526838 0.346609 -0.011982
-0.550868 0.336331 0.009205
-0.54183 0.344219 -0.008311
0.601942 0.321204 0.010697
0.594937 0.33101 -0.003987
0.501971 0.333255 0.00959
0.485437 0.326753 0.009469
0.468714 0.32025 0.009537
0.197573 0.339707 0.011245
-0.226565 0.339694 0.009765
-0.49616 0.324854 0.008959
-0.497424 0.333863 -0.007665
-0.564922 0.328771 0.012302
0.451705 0.313738 0.009442
0.435297 0.308067 0.008662
0.419041 0.302999 0.008757
0.188675 0.327012 0.015692
-0.212757 0.322546 0.006425
-0.462199 0.307851 0.009026
-0.463491 0.316286 -0.007436
-0.575818 0.320099 0.005417
0.401798 0.297079 0.009967
0.384319 0.292183 0.009873
0.367448 0.287929 0.008303
0.354073 0.284796 0.005081
0.181826 0.309223 0.014117
-0.202715 0.3056 0.000777
-0.427778 0.291066 0.009628
-0.429463 0.299699 -0.007302
-0.587891 0.304237 0.01649
0.63316 0.272455 0.013853
0.624837 0.288901 0.00475
0.318723 0.274002 0.011684
0.304036 0.269891 0.005916
0.185899 0.287427 0.005848
-0.198749 0.289187 0.009308
-0.376751 0.273236 0.007618
-0.377938 0.280544 -0.00823
-0.599686 0.288614 0.00977
0.269171 0.258465 0.012192
0.250084 0.254839 0.010778
0.231748 0.255208 0.010307
0.214178 0.259895 0.009564
-0.201618 0.273371 0.016997
-0.208419 0.263084 0.008482
-0.32592 0.252173 0.008497
-0.343054 0.258137 0.009358
-0.344803 0.265871 -0.007342
-0.610903 0.271896 0.003946
0.651287 0.238346 0.008833
0.645564 0.252388 -0.00412
0.642653 0.257998 0.00643
-0.235315 0.243702 0.008676
-0.292324 0.239638 0.009744
-0.293892 0.245329 -0.007302
-0.622132 0.255711 0.01522
-0.63331 0.238447 0.010039
-0.644498 0.220935 0.003982
0.666764 0.199852 0.014649
-0.655072 0.203976 0.01536
0.667121 0.18654 0.013235
-0.665057 0.185943 0.009913
0.662728 0.171291 0.014357
-0.671387 0.168241 0.004623
0.652671 0.156032 0.018372
0.636755 0.156094 0.009974
0.623841 0.158091 0.004458
0.610069 0.154086 0.005198
0.590192 0.150428 0.005113
-0.670673 0.153418 0.016139
0.621532 0.145946 0.015003
0.603239 0.138077 0.01815
0.585794 0.134269 0.018496
0.571232 0.136421 0.014033
0.553976 0.137748 0.007998
0.537088 0.138448 0.00083
-0.662818 0.13963 0.012034
0.539506 0.12695 0.014768
0.521715 0.124503 0.009234
0.503074 0.115732 0.00959
-0.632081 0.117459 0.008901
-0.64888 0.127706 0.009922
0.486491 0.10816 0.009859
0.469702 0.100195 0.00993
-0.578788 0.09866 0.00682
-0.596786 0.103463 0.009504
-0.614228 0.109624 0.009089
0.452769 0.092711 0.009917
0.435567 0.084713 0.009661
-0.515354 0.081227 0.007617
-0.528641 0.085014 0.008684
-0.54047 0.088517 0.008684
-0.558566 0.093477 0.00842
0.417841 0.076237 0.009312
0.400939 0.064628 0.00998
-0.463039 0.064335 0.010993
-0.476536 0.068568 0.014894
-0.493905 0.073607 0.013686
0.386623 0.050449 0.010733
-0.429805 0.048681 0.009241
-0.44628 0.057556 0.009792
0.378349 0.031538 0.014443
-0.414841 0.03738 0.007891
-0.402581 0.019428 0.005346
0.380864 -1.2e-05 0.011989
0.384683 -0.017216 0.008806
-0.395247 -0.021713 0.006439
0.393591 -0.051566 0.016217
0.389548 -0.034135 0.004117
-0.396588 -0.035452 0.01055
-0.399158 -0.050814 0.016347
0.397702 -0.067477 0.012038
0.399828 -0.084168 0.010191
-0.40959 -0.088682 0.003704
0.400455 -0.101114 0.009564
-0.410576 -0.102536 0.007704
0.40059 -0.118128 0.009496
-0.411509 -0.119388 0.008744
0.401818 -0.135626 0.008949
-0.412178 -0.135908 0.008613
0.405257 -0.15555 0.007381
-0.412371 -0.152209 0.009286
-0.41255 -0.169129 0.009604
0.412031 -0.186949 0.011052
-0.412841 -0.186102 0.009443
0.413972 -0.202376 0.008358
-0.412976 -0.202887 0.009469
0.414662 -0.215418 0.004943
-0.412976 -0.219739 0.009564
0.411124 -0.233939 0.010332
-0.412976 -0.236686 0.009564
0.408415 -0.253498 0.00452
-0.412897 -0.253632 0.009564
0.403969 -0.271678 0.016386
-0.412662 -0.270578 0.009564
0.402114 -0.287552 0.011765
-0.412427 -0.287525 0.009564
0.566331 -0.332516 0.011048
0.400848 -0.30396 0.009658
-0.411297 -0.304377 0.010129
0.57775 -0.34146 0.017123
0.552308 -0.329809 0.010119
0.536527 -0.33377 0.010944
0.399864 -0.320274 0.008716
-0.408909 -0.320517 0.011613
-0.533268 -0.342847 0.012136
-0.547916 -0.337115 0.015653
-0.563914 -0.340031 0.014684
0.519836 -0.342328 0.010353
0.502741 -0.351333 0.009671
0.399694 -0.337059 0.00909
-0.40544 -0.33385 0.014405
-0.4991 -0.361346 0.00885
-0.515787 -0.351771 0.010293
-0.579682 -0.350466 0.009857
0.586053 -0.355899 0.00934
0.485571 -0.361633 0.009604
0.401954 -0.35463 0.007977
-0.403518 -0.351972 0.009349
-0.466239 -0.378122 0.008989
-0.482957 -0.369463 0.00881
-0.591499 -0.362235 0.004561
0.598376 -0.388813 0.015293
0.592532 -0.372378 0.003762
0.46875 -0.371935 0.009187
0.452436 -0.380695 0.008716
0.436058 -0.384733 0.00909
0.420256 -0.381091 0.007909
0.408758 -0.370047 0.001161
-0.406634 -0.369172 0.017176
-0.416932 -0.381315 0.009156
-0.431481 -0.389922 0.001184
-0.44862 -0.38508 0.007304
-0.600312 -0.374064 0.014822
0.603902 -0.405921 0.009649
-0.618761 -0.409739 0.012883
0.615323 -0.439652 0.015293
0.609506 -0.423029 0.004004
-0.635356 -0.444452 0.011802
0.620848 -0.45676 0.009649
0.632269 -0.490492 0.015293
0.626452 -0.473868 0.004004
-0.645904 -0.477208 0.005611
-0.647869 -0.490215 0.011491
0.637795 -0.507599 0.009649
-0.649178 -0.505271 0.01809
0.648902 -0.541237 0.015356
0.643399 -0.524707 0.004004
-0.585682 -0.532662 0.007252
-0.601211 -0.531377 0.012657
-0.614977 -0.526896 0.010899
-0.631227 -0.519402 0.010175
-0.64178 -0.511229 0.009663
-0.550526 -0.548366 0.009946
-0.568143 -0.539334 0.009056
0.652959 -0.557443 0.010048
-0.530609 -0.560027 0.01138
0.654193 -0.570339 0.005358
-0.49734 -0.579587 0.00915
-0.511571 -0.568508 0.00519
0.653159 -0.585199 0.009489
-0.478724 -0.592657 0.013079
0.64529 -0.597114 0.005265
0.636574 -0.604303 0.009509
0.622357 -0.608523 0.011008
0.603323 -0.612235 0.01271
0.585327 -0.612855 0.007876
0.552965 -0.610789 0.006299
0.534184 -0.608656 0.003668
0.519559 -0.60959 0.007515
0.502307 -0.611234 0.0092
0.485186 -0.615079 0.009563
-0.439246 -0.614308 0.009236
-0.457712 -0.603783 0.010209
0.571913 -0.615503 0.015293
0.46824 -0.620178 0.009563
0.451293 -0.625984 0.009563
0.434347 -0.632417 0.009563
-0.412993 -0.631967 0.01335
-0.424179 -0.622499 0.00714
0.417266 -0.639276 0.009698
0.399773 -0.647324 0.01025
-0.392847 -0.642429 0.010407
0.381661 -0.655236 0.010653
0.362795 -0.663393 0.012388
-0.353765 -0.66438 0.010465
-0.370813 -0.654902 0.00994
0.343671 -0.671517 0.010217
0.332193 -0.676379 0.009837
0.320008 -0.680808 0.009504
0.213882 -0.681898 0.009537
0.196671 -0.680667 0.009833
0.179097 -0.683817 0.010169
-0.192671 -0.684041 0.009564
-0.209684 -0.683391 0.009631
-0.320469 -0.679912 0.009442
-0.337581 -0.672024 0.01033
0.299158 -0.687518 0.006448
0.279969 -0.691773 0.008142
0.263546 -0.692297 0.008595
0.247272 -0.690382 0.009214
0.230644 -0.685751 0.009375
0.161433 -0.690228 0.010102
0.143797 -0.698365 0.009994
-0.158778 -0.695574 0.009564
-0.175725 -0.688513 0.009564
-0.226761 -0.686507 0.009792
-0.243541 -0.690867 0.00998
-0.259564 -0.692785 0.010613
-0.275107 -0.692742 0.011537
-0.288038 -0.691204 0.014207
-0.30271 -0.686519 0.01034
0.126849 -0.70569 0.010715
0.113829 -0.710837 0.013266
0.099328 -0.71627 0.009873
-0.108401 -0.716853 0.008676
-0.124939 -0.710185 0.009241
-0.141832 -0.70287 0.009564
0.078744 -0.722335 0.006436
0.059666 -0.725733 0.008142
0.043243 -0.727131 0.008595
0.026969 -0.727775 0.009214
0.010341 -0.728055 0.009375
-0.006354 -0.728133 0.009469
-0.023207 -0.728133 0.009564
-0.04022 -0.727999 0.009631
-0.057369 -0.727328 0.009833
-0.074517 -0.725316 0.010031
-0.09167 -0.721985 0.009264
-0.273142 0.938178 -0.030499
-0.287831 0.938926 -0.027888
-0.305445 0.939166 -0.027691
-0.32518 0.938083 -0.029759
-0.224445 0.917947 -0.029849
-0.241412 0.923578 -0.025306
-0.357686 0.926455 -0.023242
-0.371625 0.921332 -0.026797
-0.212625 0.907725 -0.027624
-0.390141 0.91182 -0.031134
-0.197547 0.891033 -0.028122
-0.406496 0.895939 -0.029468
-0.187012 0.878765 -0.028388
-0.191589 0.87638 -0.020938
-0.204885 0.880151 -0.013876
-0.418727 0.880232 -0.031609
-0.421117 0.865437 -0.022455
0.059735 0.823296 -0.007652
0.042324 0.828035 -0.006683
0.026292 0.830142 -0.006388
0.010242 0.830806 -0.006939
-0.006354 0.83094 -0.007289
-0.023113 0.83094 -0.007477
-0.039709 0.830806 -0.007827
-0.055759 0.830142 -0.008378
-0.071791 0.828113 -0.008082
-0.170766 0.843557 -0.023012
0.386684 0.820503 -0.030144
0.366618 0.826155 -0.027975
0.317238 0.827708 -0.026036
0.302983 0.821422 -0.022604
0.285947 0.820301 -0.028932
0.090766 0.812343 -0.00303
0.077404 0.817395 -0.006768
-0.089055 0.823801 -0.007127
-0.106391 0.818851 -0.007813
-0.122828 0.815052 -0.009417
-0.136351 0.815021 -0.012287
-0.170759 0.830654 -0.012191
-0.437145 0.830222 -0.033825
0.419334 0.802976 -0.029921
0.402585 0.809783 -0.025915
0.266656 0.812096 -0.027612
0.249639 0.802707 -0.027329
0.126871 0.794685 -0.010491
-0.436877 0.814356 -0.028624
0.430136 0.792211 -0.027209
0.23345 0.792057 -0.027193
0.162079 0.776622 -0.006392
0.145299 0.785166 -0.007813
-0.435665 0.797369 -0.026741
0.440166 0.777651 -0.026746
0.216729 0.778916 -0.02493
0.178863 0.769715 -0.00467
-0.421049 0.780355 -0.014165
0.436078 0.763234 -0.014546
-0.427511 0.76469 -0.026176
0.456703 0.744929 -0.026126
-0.404903 0.746103 -0.013841
0.452181 0.728965 -0.014282
-0.393011 0.729533 -0.013469
-0.407655 0.728646 -0.025594
-0.379056 0.714554 -0.014318
-0.394436 0.715143 -0.022661
0.472418 0.695183 -0.032875
0.462013 0.691863 -0.017717
-0.3426 0.694876 -0.011981
-0.360787 0.700675 -0.016074
0.458844 0.673918 -0.015944
-0.307181 0.680571 -0.004264
-0.327192 0.684394 -0.013934
0.448462 0.660506 -0.011038
-0.300284 0.661885 -0.007057
0.448248 0.644272 -0.017617
-0.29551 0.643546 -0.008125
0.433921 0.627342 -0.014033
-0.294252 0.626506 -0.008297
0.433581 0.613632 -0.021618
0.418861 0.609633 -0.01429
-0.295152 0.609859 -0.006814
0.411859 0.594792 -0.020487
0.403712 0.599033 -0.013805
0.385047 0.5963 -0.009823
-0.297686 0.591369 -0.002941
0.369474 0.582779 -0.015676
0.354351 0.580334 -0.013597
0.336119 0.581638 -0.009903
0.315852 0.577426 -0.010392
0.297251 0.569804 -0.009075
0.281828 0.556431 -0.006408
-0.306623 0.55462 -0.012071
0.271082 0.53787 -0.001524
-0.308497 0.541741 -0.008442
0.266892 0.521041 -0.000852
-0.308369 0.52716 -0.006471
0.26598 0.50815 -0.004975
-0.306449 0.514865 -0.003142
0.264525 0.492172 -0.007544
0.262284 0.475292 -0.009808
-0.297096 0.477991 -0.010764
0.258563 0.458185 -0.01357
-0.293525 0.459441 -0.005719
0.253373 0.441561 -0.001653
-0.290747 0.445899 -0.001448
0.247879 0.424547 -0.00736
0.241558 0.407829 -0.013722
-0.274947 0.409529 -0.005389
0.234064 0.39178 -0.003765
-0.264459 0.390059 -0.011968
0.567139 0.346458 -0.006253
0.223872 0.374403 -0.013745
-0.25367 0.373654 -0.000649
0.582669 0.340704 -0.006297
0.551497 0.346514 -0.006522
0.534824 0.34167 -0.007393
0.517568 0.335827 -0.00711
0.211534 0.356838 -0.008437
-0.241001 0.356506 -0.004805
-0.5139 0.341825 -0.008781
-0.513702 0.347729 -0.02523
0.500989 0.329485 -0.006536
0.484742 0.32305 -0.006939
0.19842 0.339425 -0.004962
-0.226565 0.339492 -0.007383
-0.480437 0.325466 -0.007436
-0.48076 0.331805 -0.024329
-0.560643 0.335228 -0.006191
0.615507 0.30442 -0.002762
0.606337 0.318497 -0.01191
0.468078 0.31634 -0.007356
0.451024 0.31021 -0.007652
0.433817 0.304395 -0.007908
0.18879 0.323497 0.001374
-0.212757 0.322546 -0.010521
-0.446544 0.308127 -0.007436
-0.446961 0.313996 -0.024235
-0.575768 0.321386 -0.012884
0.416584 0.299491 -0.007222
0.399687 0.294732 -0.006643
0.382965 0.289829 -0.007423
0.366605 0.286163 -0.008495
0.18399 0.305018 -0.006648
-0.202715 0.3056 -0.01617
-0.394518 0.286258 -0.007655
-0.411962 0.292405 -0.00705
-0.413472 0.298249 -0.024168
-0.587958 0.305412 -0.001326
0.63555 0.270949 -0.007229
0.628056 0.282381 -0.023472
0.625393 0.290159 -0.010542
0.350331 0.282462 -0.007823
0.333484 0.277943 -0.006566
0.316946 0.272297 -0.007414
0.300537 0.267992 -0.007881
0.197737 0.273036 -0.00997
0.187068 0.287318 -0.015454
-0.198855 0.289313 -0.007477
-0.361624 0.273779 -0.007759
-0.362332 0.278536 -0.024558
-0.599386 0.288654 -0.007383
0.28347 0.262531 -0.007006
0.265869 0.257799 -0.006845
0.24807 0.255278 -0.007248
0.230384 0.256253 -0.007517
0.213192 0.262103 -0.008212
-0.201827 0.274312 0.000566
-0.210708 0.262105 -0.005177
-0.310883 0.25211 -0.007504
-0.327767 0.258732 -0.007409
-0.328242 0.263156 -0.024329
-0.610684 0.271707 -0.013032
-0.224435 0.251592 -0.007199
-0.240713 0.243821 -0.007275
-0.258497 0.239838 -0.00672
-0.27647 0.240624 -0.006814
-0.622013 0.25499 -0.001662
0.649214 0.241204 -0.009286
-0.633279 0.237882 -0.007316
0.660439 0.200453 0.00125
0.653353 0.222694 -0.007302
-0.64442 0.220734 -0.013323
-0.655489 0.203236 -0.00242
0.660611 0.183874 0.003949
0.654064 0.189859 -0.004567
0.641614 0.187373 -0.009292
0.622731 0.183728 -0.012469
-0.665454 0.183378 -0.01028
0.64976 0.173123 0.003033
0.63251 0.17064 -0.001683
0.618723 0.166866 -0.002206
0.605238 0.168561 -0.005337
0.587596 0.169181 -0.009607
0.570053 0.169893 -0.014927
-0.671104 0.165364 -0.009868
0.570609 0.152714 -0.000385
0.553295 0.153525 -0.006738
0.536348 0.153727 -0.014162
-0.670437 0.152815 -0.000425
0.520478 0.138448 -0.00754
-0.66131 0.138776 -0.005321
0.507168 0.127215 -0.002628
0.489498 0.121702 -0.006928
-0.628111 0.117167 -0.010452
-0.646422 0.126587 -0.007947
0.473577 0.110473 -0.003037
0.455185 0.105084 -0.008014
-0.549425 0.095997 -0.010349
-0.569052 0.099644 -0.008257
-0.583541 0.10313 -0.010352
-0.593583 0.104048 -0.004513
-0.608344 0.109307 -0.00741
0.438898 0.094008 -0.004026
0.420109 0.087111 -0.009398
-0.502057 0.080112 -0.005983
-0.514937 0.0847 -0.006663
-0.52827 0.088899 -0.005751
0.401356 0.07307 -0.007958
-0.461161 0.064194 -0.006612
-0.480924 0.072034 -0.003371
0.387074 0.057818 -0.007868
-0.427491 0.046077 -0.007674
-0.443797 0.056244 -0.007316
0.378531 0.016579 0.000534
0.378732 0.03692 -0.008934
-0.413198 0.033343 -0.009396
-0.40312 0.017475 -0.015763
0.381563 -0.0008 -0.005068
-0.397769 0.000385 -0.009108
0.385201 -0.017418 -0.008311
-0.396303 -0.017687 -0.007229
0.394058 -0.050571 -0.001079
0.389516 -0.033718 -0.013404
-0.397894 -0.034539 -0.00563
-0.401446 -0.051118 -0.000694
0.397855 -0.06745 -0.004957
-0.40631 -0.067876 -0.013059
0.399783 -0.084423 -0.006657
-0.410083 -0.085401 -0.009903
0.400455 -0.101208 -0.007289
-0.411895 -0.102083 -0.008719
0.400881 -0.118195 -0.007674
-0.41255 -0.118478 -0.007688
0.402401 -0.135693 -0.009028
-0.412841 -0.135263 -0.007504
0.409819 -0.170846 -0.00133
0.405769 -0.153066 -0.01378
-0.412976 -0.152048 -0.007477
-0.412976 -0.1689 -0.007383
0.413717 -0.187147 -0.005244
-0.412976 -0.185846 -0.007383
0.415501 -0.202793 -0.00693
-0.412976 -0.202793 -0.007383
0.415004 -0.218694 -0.00792
-0.412976 -0.219739 -0.007383
0.412915 -0.235842 -0.009283
-0.412976 -0.236686 -0.007383
0.409446 -0.252274 -0.013812
-0.412976 -0.253632 -0.007383
0.40553 -0.270027 -0.001658
-0.412976 -0.270578 -0.007383
0.402367 -0.286906 -0.005827
-0.412976 -0.287525 -0.007383
0.561495 -0.332631 -0.004922
0.400881 -0.304243 -0.007186
-0.412348 -0.304471 -0.006755
0.576333 -0.342111 -0.003215
0.548081 -0.331827 -0.001955
0.53542 -0.336079 -0.005141
0.400321 -0.321162 -0.007504
-0.410223 -0.321162 -0.004908
-0.551135 -0.347924 -0.001017
0.519119 -0.343651 -0.00684
0.502132 -0.352328 -0.007383
0.400724 -0.338203 -0.00788
-0.406496 -0.337198 -0.00047
-0.51494 -0.364641 -0.006675
-0.532174 -0.35529 -0.005064
-0.568366 -0.349411 -0.001224
-0.580809 -0.356906 -0.006127
0.586349 -0.357127 -0.008104
0.485185 -0.36237 -0.007383
0.402764 -0.354907 -0.010409
-0.403644 -0.355068 -0.012095
-0.481365 -0.381505 -0.007289
-0.497908 -0.372933 -0.007038
-0.591433 -0.366248 -0.009125
0.598163 -0.389203 -0.001734
0.592595 -0.37279 -0.013247
0.468333 -0.372413 -0.007477
0.451548 -0.38065 -0.007504
0.434979 -0.383957 -0.008015
0.419553 -0.380438 -0.010902
0.40782 -0.3704 -0.017407
-0.406077 -0.373553 -0.005285
-0.447414 -0.396292 -0.010284
-0.464419 -0.389158 -0.007921
-0.601172 -0.376055 -0.002121
-0.416941 -0.390817 -0.010216
-0.43184 -0.400256 -0.016664
-0.609122 -0.39215 -0.011042
0.603812 -0.40615 -0.007383
-0.619101 -0.40853 -0.002656
0.61511 -0.440042 -0.001734
0.609461 -0.423096 -0.013032
-0.625925 -0.425709 -0.012689
-0.634881 -0.444944 -0.005544
0.620759 -0.456989 -0.007383
-0.640037 -0.461578 -0.00852
0.632056 -0.490882 -0.001734
0.626407 -0.473935 -0.013032
-0.643552 -0.47184 -0.003818
-0.641802 -0.486933 -0.004237
0.637705 -0.507828 -0.007383
-0.615831 -0.514428 -0.006281
-0.633022 -0.504046 -0.005009
-0.644307 -0.500781 0.005064
0.648453 -0.541533 -0.001452
0.643354 -0.524774 -0.013032
-0.571766 -0.530609 -0.007167
-0.583396 -0.526238 -0.006484
-0.597095 -0.522601 -0.004021
-0.536557 -0.547813 -0.007696
-0.554755 -0.538405 -0.007316
0.652327 -0.557766 -0.00589
-0.515747 -0.5583 -0.011079
0.65254 -0.573406 -0.008185
-0.480846 -0.581793 -0.006334
-0.49734 -0.570352 -0.008469
0.646729 -0.588138 -0.010886
-0.463331 -0.592673 -0.006518
0.63617 -0.599475 -0.006657
0.625551 -0.605304 -0.002229
0.611394 -0.605576 -0.005174
0.593145 -0.6055 -0.006329
0.572782 -0.606495 -0.00514
0.556295 -0.60253 -0.011757
0.540677 -0.603495 -0.010127
0.520708 -0.604457 -0.011983
0.502388 -0.608782 -0.008338
0.485253 -0.613061 -0.00745
-0.427434 -0.614705 -0.007593
-0.445012 -0.603536 -0.007756
0.46824 -0.618531 -0.007383
0.451293 -0.624885 -0.007383
0.434347 -0.63124 -0.007383
-0.408765 -0.626992 -0.005124
0.417401 -0.638066 -0.007383
0.400387 -0.646203 -0.007316
-0.376533 -0.646413 -0.007612
-0.391023 -0.63596 -0.010498
0.383082 -0.654295 -0.007114
0.36544 -0.662768 -0.00671
-0.345926 -0.665681 -0.00288
-0.359531 -0.656577 -0.006186
0.347553 -0.6703 -0.006374
